99	199
	1629	1356	1497	1905	1828	1572	1219	1219	1219	1219	1371	1413	1193	1165	882	601	386	127	78	30	42	72	106	137	307	288	274	304	309	373	541	717	863	1066	1201	1293	1229	1176	1276	1413	1520	1371	1164	996	914	914	913	914	942	989	1053	1219	1280	1536	1697	2111	2285	2323	2285	2285	2084	1945	1900	1719	1550	1414	1327	1295	1066	716	426	303	304	304	445	817	1044	761	894	1066	1213	1524	1815	1859	2013	2100	2173	2215	2133	2130	2076	1946	1899	1868	1904	1866	1740	1795	1828	1513	1388	1358	1444	1498	1520	1672	1824	1969	1851	1755	1434	1219	1444	1616	1828	1811	1814	1746	1433	1367	1371	1463	1523	1524	1523	1523	1376	1296	984	736	578	285	152	79	128	245	255	233	288	285	444	558	492	452	665	853	1001	1202	1384	1663	1683	1666	1524	1445	1269	1066	963	801	762	845	1277	1587	1883	2011	1843	1686	1724	1679	1185	720	610	659	588	597	744	645	538	657	735	856	913	784	741	970	1211	1410	1607	1676	1477	1517	1423	1286	1255	1430	1715	1669	1498	1341	1219
	990	1045	1340	1632	1753	1828	1504	1539	1616	1420	1577	1565	1295	1067	1054	1088	825	404	141	75	42	73	107	137	331	296	304	304	304	338	616	775	906	1066	1235	1357	1412	1466	1507	1523	1476	1283	1103	914	914	914	911	887	911	910	936	1060	1235	1460	1523	1828	2133	2109	2068	1999	1952	1839	1736	1749	1828	1799	1724	1427	1014	673	337	301	304	402	680	1116	1407	1274	1591	1638	1616	1489	1536	1676	1847	1935	1881	1875	1759	1681	1676	1573	1524	1524	1524	1371	1371	1353	1432	1691	1500	1218	1343	1511	1524	1605	1777	1980	1941	1765	1595	1647	1716	1903	1864	1524	1404	1326	1303	1257	1294	1377	1412	1433	1508	1411	1371	1371	1236	1219	1028	665	431	167	44	62	138	304	291	194	51	10	173	457	563	604	704	827	979	1219	1483	1644	1828	1829	1811	1651	1591	1418	1021	761	1052	1373	1653	1846	1979	1980	1965	1613	1345	1017	1089	1165	906	603	534	532	583	778	935	1177	1237	992	860	820	1024	1218	1320	1450	1588	1640	1515	1663	1517	1568	1676	1676	1545	1478	1426
	914	893	1117	1295	1447	1219	1437	1716	1727	1624	1371	1316	1276	1219	1388	1234	963	581	367	176	35	60	90	119	157	170	304	300	303	380	533	705	948	1142	1324	1432	1524	1531	1528	1505	1390	1228	1106	914	914	912	913	881	862	902	986	1065	1138	1371	1676	1715	1752	1831	1703	1618	1698	1608	1586	1652	1646	1523	1777	1459	1099	677	299	291	457	657	1051	1218	1543	1680	1812	1981	1980	1981	1792	1828	1811	1828	1797	1701	1676	1676	1676	1611	1581	1600	1675	1554	1464	1440	1237	1196	1107	1254	1475	1522	1672	1789	1887	1980	2108	1955	1981	1792	1618	1368	1342	1196	1002	914	831	762	756	968	1219	1224	1042	934	979	998	1027	1068	867	555	304	118	59	36	36	40	95	222	254	73	37	152	324	466	476	609	731	961	1199	1276	1329	1462	1533	1648	1828	1537	1166	742	920	1216	1463	1650	1902	2131	2028	1849	1610	1464	1562	1323	1017	791	614	479	549	763	872	1066	1196	1372	1180	950	892	1063	1208	1331	1503	1632	1676	1778	1809	1716	1634	1459	1333	1250	1163
	1397	1200	1053	1027	1137	1209	1366	1335	1274	1371	1331	1485	1493	1509	1527	1254	914	840	402	269	152	61	32	74	115	137	159	157	246	406	457	655	914	1115	1219	1256	1248	1153	1198	1267	1165	981	880	872	896	904	912	895	880	1002	1102	1219	1090	1301	1524	1547	1521	1643	1676	1473	1371	1371	1329	1337	1412	1477	1536	1464	1059	762	300	441	778	1154	1219	1067	1459	1684	1790	1910	1981	1997	2095	2118	2059	2033	1872	1792	1795	1812	1700	1676	1828	1863	1676	1524	1593	1736	1371	1100	1066	1420	1823	1918	1857	1908	1962	1990	2058	2037	2006	1963	1613	1409	1498	1371	1371	1371	1371	1228	883	457	585	657	506	416	418	457	568	577	435	152	71	98	101	104	104	86	77	45	27	74	10	10	10	136	442	457	511	723	1034	1266	1523	1551	1679	1828	1774	1455	1200	700	778	1070	1332	1666	1981	2174	2286	2286	2078	1847	1661	1391	1205	975	785	558	457	761	759	867	1035	1233	1524	1257	985	1060	1314	1521	1524	1371	1319	1473	1673	1622	1676	1625	1504	1316	1275
	1739	1631	1518	1371	1220	1376	1550	1550	1206	1066	927	914	914	907	945	876	847	695	557	304	304	117	48	40	78	109	141	152	207	342	404	545	678	814	896	953	955	914	935	931	797	762	761	803	820	845	848	878	1027	1240	1339	1436	1340	1219	1351	1494	1738	1843	1808	1701	1521	1637	1657	1357	1139	1262	1373	1245	1066	533	254	649	1003	1131	1024	1008	1226	1355	1507	1522	1704	1836	2086	2286	2209	2079	1976	2131	2091	1912	1873	1940	2132	1972	1824	1929	1809	1715	1416	1140	1063	1188	1422	1578	1828	1980	1857	1823	1918	1986	1958	1634	1438	1371	1219	914	914	914	811	762	647	741	667	270	152	152	150	145	146	147	99	148	201	342	342	334	276	236	152	135	94	33	14	10	10	10	10	152	339	512	815	1030	1353	1319	1426	1647	1828	1442	1059	650	652	976	1199	1361	1545	1872	2164	2245	2032	1826	1839	1711	1449	1097	820	587	469	443	610	664	994	1218	1358	1524	1243	1030	1061	1082	1219	1228	1461	1234	1320	1371	1545	1484	1209	1204	1218
	1632	1411	1255	1346	1066	1219	1524	1676	1676	1371	1066	1116	976	1013	733	609	609	482	344	304	159	59	22	46	76	98	117	136	151	173	304	363	487	516	525	600	602	628	708	723	743	744	757	765	780	858	979	1066	1152	1303	1498	1548	1642	1676	1873	1676	1706	1772	1813	1828	1655	1514	1563	1371	1121	1107	1225	1177	817	500	243	475	438	625	769	892	1039	1262	1419	1524	1677	1828	1928	1954	1981	1913	1821	1981	1865	1674	1830	1841	1809	1857	1809	1826	1843	1629	1340	1066	1044	1054	1192	1398	1583	1901	1676	1676	1981	1886	1650	1640	1690	1771	1569	1353	1224	1219	1068	762	569	375	304	213	220	285	268	319	397	304	366	401	684	879	780	859	846	827	707	457	150	122	64	10	10	10	10	10	10	153	406	711	914	963	1153	1434	1680	1294	925	530	600	1081	1423	1682	1945	2259	2286	1956	1617	1332	1102	1072	1017	914	724	689	554	411	550	717	941	1108	1287	1425	1408	1203	1066	1293	1511	1672	1815	1744	1807	1550	1290	1039	889	862	857
	1676	1371	1036	756	781	988	1090	1051	1175	1315	1387	1513	1371	1371	1274	1219	1036	822	389	137	28	21	40	41	73	65	98	99	127	152	304	321	398	456	456	493	539	599	648	664	661	698	739	761	863	949	1066	1165	1218	1219	1252	1371	1524	1536	1621	1524	1408	1553	1630	1676	1608	1544	1371	1371	1388	1085	1065	1039	921	651	422	258	236	276	363	666	838	1028	1243	1448	1668	1783	1719	1702	1669	1694	1762	1828	1582	1270	1485	1524	1630	1722	1773	1981	1867	1701	1524	1125	1032	1040	1064	1270	1487	1622	1495	1528	1690	1702	1928	1837	1721	1676	1539	1141	944	712	624	350	304	304	314	405	530	695	762	881	887	874	918	760	914	1186	1066	1219	1249	943	583	307	485	452	407	278	178	19	10	10	10	10	10	201	327	431	821	963	1222	990	640	458	646	1044	1433	1707	1999	2304	2317	1996	1535	1296	1205	1178	1130	1150	1100	823	587	410	502	722	885	980	1109	1319	1440	1398	1208	1202	1259	1428	1453	1625	1627	1384	1139	902	1049	1142	1236
	1318	1371	1164	657	609	609	757	905	1025	1066	1371	1422	1203	1145	1193	1076	931	672	343	110	15	32	69	102	142	152	149	152	152	151	160	304	367	456	456	457	457	537	608	610	556	566	564	609	618	609	752	896	1066	1243	1371	1441	1543	1726	1663	1693	1436	1219	1413	1449	1506	1552	1523	1584	1639	1462	1270	965	776	914	803	617	463	219	276	464	704	958	1159	1347	1524	1473	1280	1066	1219	1524	1674	1476	1092	918	1066	1676	1666	1659	1619	1594	1405	1371	1371	1219	1021	1050	1066	1218	1371	1371	1371	1371	1495	1605	1853	1776	1524	1285	1032	909	577	418	304	380	432	457	546	704	762	993	1039	1218	1174	1371	1142	1029	1236	1280	1371	1524	983	586	305	736	947	855	848	660	453	263	138	10	10	10	10	10	10	10	285	437	822	470	455	656	818	1102	1350	1637	1965	2286	2257	2167	2285	2135	1981	1832	1541	1378	1094	805	595	432	429	569	639	703	777	935	1291	1483	1217	1230	1370	1417	1582	1568	1401	1146	935	999	1222	1540	1578
	1219	1364	1066	610	609	802	1034	1371	1363	1524	1604	1435	1227	1066	1024	866	609	355	152	94	31	45	92	134	152	152	152	245	153	185	280	438	567	634	517	489	733	914	914	897	767	762	774	696	693	677	638	609	743	888	1024	1206	1260	1419	1520	1591	1560	1380	1219	1181	1463	1630	1676	1719	1828	1667	1676	1438	1128	778	609	619	502	354	182	349	520	762	762	812	903	914	960	1392	1675	1498	1311	1040	912	1003	1200	1567	1994	1860	1701	1500	1437	1371	1305	1285	1066	1285	1454	1584	1617	1714	1591	1371	1469	1732	1821	1702	1524	1259	1160	834	425	421	634	811	841	619	783	1008	1195	1219	1371	1447	1524	1405	1158	1371	1513	1521	1583	1185	626	457	762	1066	1066	1255	1219	988	817	658	274	152	47	10	10	10	10	10	10	10	177	480	762	1066	1145	1141	1302	1661	2062	2124	1894	1948	1985	1738	1935	1981	1686	1323	1095	804	593	405	427	723	904	1031	837	763	912	964	981	1167	1488	1824	1491	1273	992	912	1027	1236	1463	1650	1507
	1327	1371	1105	659	457	609	914	1272	1293	1212	1368	1524	1312	1219	930	787	457	235	86	26	8	42	78	136	144	148	152	152	266	498	630	772	945	1012	881	654	608	914	1181	1355	1273	1198	1053	807	965	867	762	718	667	716	872	1019	1193	1478	1487	1399	1378	1130	925	1032	1087	1321	1371	1371	1409	1383	1299	1371	1371	1233	1189	938	570	294	192	280	492	766	925	1121	1236	1371	1320	1452	1676	1548	1272	936	762	1027	1356	1511	1638	1669	1676	1715	1676	1598	1451	1163	1011	1088	1371	1755	1828	1828	1494	1113	1203	1485	1695	1430	1182	989	670	457	439	698	1010	1077	763	804	1097	1451	1621	1342	1545	1933	1795	1524	1523	1561	1476	1352	1066	640	609	849	1178	1378	1297	1512	1346	1177	1030	747	579	394	169	116	44	10	10	10	10	10	10	10	347	739	1146	1529	1696	1977	2109	1897	1533	1804	1893	1464	1351	1662	1653	1292	1040	749	532	316	520	741	976	1219	1113	1038	950	909	970	1170	1547	1676	1396	1086	752	929	1241	1526	1524	1511	1384
	1119	1173	1221	914	573	457	566	811	1066	912	1188	1370	1294	986	890	762	457	99	1	1	1	1	8	81	131	279	607	476	329	368	720	939	1092	1171	1168	1066	736	609	998	1336	1416	1485	1278	914	1039	1068	914	793	747	670	790	867	922	971	960	932	914	895	1143	1477	1524	1463	1518	1543	1421	1326	1267	1244	1219	1187	1074	914	629	459	304	152	288	517	824	1066	1194	1353	1447	1299	1308	1339	1371	959	762	792	1184	1524	1613	1742	1861	1938	1798	1681	1489	1139	1001	1192	1358	1644	1504	1371	1333	1086	762	1049	1371	1676	1135	823	456	457	762	1027	1277	1066	762	950	1288	1625	1689	1488	1914	1524	1364	1285	1219	1103	975	791	762	730	1066	1461	1362	1538	1524	1460	1280	914	620	428	304	304	283	192	245	152	77	10	10	10	10	10	61	457	600	782	1256	1373	1667	1510	1455	1603	1823	1522	1164	1243	1473	1223	852	561	320	303	588	836	1052	1348	1428	1339	1259	1201	1177	1348	1523	1453	1134	716	931	1155	1004	1340	1533	1524	1475
	1181	914	1005	1219	914	625	384	379	523	929	1218	1021	846	672	657	637	503	242	1	0	1	1	114	457	372	457	575	745	732	304	635	969	1158	1328	1524	1257	986	626	811	1114	1339	1491	1562	1255	1371	1107	941	957	898	736	709	762	892	951	1066	1115	1165	1182	1346	1629	1828	1828	1653	1524	1551	1564	1491	1485	1257	1135	990	762	518	402	251	152	202	277	385	601	825	1131	1346	1371	1141	1093	1134	1098	847	761	1013	1371	1915	2078	1974	1861	1694	1552	1296	1106	986	1249	1676	1538	1523	1523	1339	1007	771	780	976	1066	863	486	445	736	1085	1372	1305	1017	879	1066	1350	1371	1761	1773	1461	1290	1128	947	762	762	952	976	762	953	1321	1676	1524	1684	1517	1373	1066	549	347	304	438	591	523	500	399	314	269	265	233	152	10	10	10	10	252	436	597	874	1237	1042	1189	1468	1520	1492	1207	910	1064	1134	866	466	269	488	811	1000	1102	1200	1343	1201	1220	1361	1266	1281	1087	932	751	725	987	1288	1138	1068	1308	1603	1476
	976	1070	751	973	1066	1023	609	352	302	494	656	548	338	141	0	0	0	0	0	0	0	39	457	455	537	762	1000	1066	1106	656	360	841	1190	1485	1473	1282	1066	795	761	995	1180	1359	1499	1524	1299	1132	1344	1222	1118	839	724	756	903	1166	1371	1532	1432	1473	1676	1828	1719	1676	1602	1573	1539	1534	1467	1348	1289	1222	1066	961	767	601	362	161	147	189	275	437	653	914	1219	1371	1041	841	924	923	745	656	837	1268	1719	1828	1828	1676	1562	1645	1531	1177	931	1219	1582	1828	1683	1430	1371	1337	1114	914	800	762	883	506	609	1066	1217	1501	1511	1166	1025	1079	1524	1676	1510	1561	1219	1312	1168	1018	1175	1435	1562	1447	1015	943	1304	1574	1533	1528	1158	866	630	457	402	552	746	901	773	774	626	690	762	669	491	344	152	10	10	10	10	35	209	448	671	866	1226	1447	1299	1145	917	743	731	804	725	439	236	397	713	914	819	880	894	899	778	792	612	610	697	760	757	1042	1369	1513	1442	1174	1475	1420	1088
	947	926	810	604	532	552	576	532	223	138	152	92	0	0	0	0	0	0	0	0	29	152	494	688	801	931	1151	1348	1306	1014	746	456	762	1066	1371	1361	1182	912	914	762	859	1076	1202	1403	1373	1463	1385	1358	1078	915	762	744	914	1075	1066	1249	1449	1808	1780	1524	1371	1371	1371	1382	1231	1219	1213	1119	979	914	914	914	808	670	457	331	157	127	160	482	724	913	1039	1007	827	659	487	457	544	762	998	1437	1579	1732	1776	1740	1760	1722	1676	1295	961	1107	1425	1584	1828	1615	1259	1354	1371	1522	1309	1177	832	457	609	762	1101	1450	1431	1524	1371	1207	1365	1521	1762	1527	1405	1766	1469	1220	1446	1738	1661	1386	980	946	1219	1490	1379	1097	1066	964	524	457	701	907	1133	1219	813	843	1066	1162	1167	946	867	609	361	172	10	10	10	10	10	50	252	620	948	1377	1307	1219	1117	993	784	653	546	376	201	296	513	679	572	530	463	488	522	662	812	870	1032	1148	1056	1329	1589	1676	1373	1482	1516	1294	1064
	1194	1057	914	932	914	718	564	304	156	0	0	0	0	0	0	0	0	0	0	49	304	525	667	751	799	890	1029	1298	1524	1523	1219	933	609	609	914	1319	1289	1254	1234	988	765	914	914	953	1142	1246	1282	1234	1112	976	782	752	886	1182	1347	1315	1126	1561	1828	1739	1732	1650	1497	1371	1268	1333	1371	1371	1285	1196	1200	1070	960	814	508	267	153	121	329	527	738	865	914	850	609	455	456	658	888	1059	1258	1559	2010	1981	1945	1920	1851	1729	1502	1371	1139	914	1123	1371	1590	1541	1362	1143	1133	1263	1051	787	609	584	647	842	1122	1524	1724	1828	1676	1363	1370	1524	1913	1762	1839	1610	1300	1219	1523	1497	1371	1219	1066	1272	1452	1490	1241	1370	1264	679	457	638	990	1566	1371	1104	914	1141	1273	1283	1009	743	585	304	341	406	350	221	109	10	10	10	10	237	586	859	1018	1065	1226	1354	1237	1149	920	604	284	192	373	479	433	399	519	681	835	957	1121	1219	1211	1354	1459	1441	1532	1347	1215	1445	1579	1334	1564
	1066	1038	915	914	855	650	566	517	185	0	0	0	0	0	121	120	88	123	290	475	761	823	913	991	1120	1183	1050	1064	1066	1196	1437	1375	1066	609	644	981	1287	1371	1333	1117	914	936	1219	1255	1333	1356	1219	1051	918	863	763	760	865	1066	1318	1524	1394	1371	1524	1753	1771	1804	1702	1572	1501	1563	1614	1473	1392	1249	1080	960	762	604	425	152	135	142	424	593	704	772	795	677	435	450	640	866	1066	1219	1337	1524	1756	1593	1728	1938	1858	1660	1530	1656	1315	1080	914	1150	1409	1576	1524	1242	976	896	764	609	609	648	1066	1392	1256	1545	1848	1629	1437	1369	1370	1492	1521	1539	1712	1371	1272	1446	1681	1662	1587	1219	1195	1548	1886	1571	1419	1142	737	540	675	850	1091	1422	1688	1146	1340	1371	1371	914	578	458	555	751	818	625	455	408	264	99	11	10	10	13	113	271	464	655	748	987	1220	1066	874	559	315	147	166	305	308	401	626	836	957	1025	1083	1102	1096	1130	1223	1230	1261	1066	1317	1631	1765	1608	1421
	1371	1271	1219	1219	1067	954	645	304	106	0	0	0	0	0	152	152	393	457	555	699	761	1027	1219	1219	1219	1263	1371	1238	1324	1333	1386	1278	956	670	722	774	935	944	1066	1210	1091	914	1085	1218	1371	1264	1083	1066	914	810	762	809	1066	1218	1086	1371	1437	1523	1523	1438	1426	1828	1751	1489	1339	1235	1153	1066	950	762	762	609	595	507	375	149	122	121	167	417	628	720	700	621	304	385	699	976	1242	1371	1371	1456	1384	1467	1779	1627	1586	1615	1476	1341	1371	1208	990	914	1025	1352	1499	1307	1088	839	813	952	937	938	1246	1467	1524	1518	1566	1676	1382	1221	1336	1524	1698	1828	1981	1608	1593	1828	1980	1566	1334	1219	1353	1611	1828	1318	1153	869	599	642	950	1233	1524	1506	1371	1284	1066	757	609	609	765	757	884	1215	1066	835	791	713	394	207	10	10	10	10	10	10	55	180	311	551	800	958	921	655	514	443	204	147	211	410	613	683	625	468	523	609	675	853	867	748	771	887	1064	1250	1247	1065	1002
	1059	1189	1066	914	762	725	609	498	196	1	0	0	0	0	51	291	445	467	581	722	826	1112	1401	1523	1570	1676	1570	1524	1755	1795	1676	1427	1142	762	889	1101	930	726	648	865	1130	1133	1284	1218	1342	1255	1044	930	914	887	898	854	823	891	983	1152	1240	1244	1302	1307	1449	1556	1463	1426	1219	1388	1295	1216	1045	1080	1121	1142	1079	923	709	356	152	91	113	134	228	412	559	609	303	304	566	668	623	762	802	883	1014	1219	1449	1485	1501	1455	1231	1093	1066	1066	1373	883	762	1155	1342	1307	1091	982	912	1066	1250	1209	1218	1218	1371	1371	1441	1676	1447	1219	1277	1522	1595	1676	1566	1538	1483	1509	1583	1676	1470	1608	1763	1635	1685	1431	1126	679	584	954	1223	1447	1676	1346	1177	787	762	914	777	868	1025	1220	1158	1370	1139	924	1068	833	524	306	143	10	10	10	10	10	10	10	25	111	406	642	825	906	786	618	398	126	153	337	453	414	397	539	843	864	706	610	699	767	659	611	823	951	916	1139	1215
	823	1066	1222	1182	1124	1066	936	788	469	113	0	0	0	0	0	86	162	304	439	468	607	671	866	1079	1231	1427	1217	1593	1638	1674	1618	1433	1306	923	1066	1250	1371	1066	762	609	695	925	1253	1369	1371	1329	1052	940	914	954	1105	1232	1219	909	902	864	895	927	1008	1243	1389	1521	1591	1549	1567	1382	1371	1371	1429	1398	1393	1474	1383	1371	1070	778	304	217	109	101	108	250	457	333	267	406	609	847	888	914	863	785	761	761	1085	1320	1476	1664	1520	1828	1460	1471	1431	1107	762	732	879	956	861	791	784	1214	1371	1439	1519	1629	1528	1479	1492	1662	1486	1217	1303	1321	1366	1396	1371	1364	1273	1217	1231	1263	1355	1549	1519	1425	1178	1045	762	609	685	989	1219	1665	1413	1177	762	762	914	1214	762	925	1358	1518	1525	1283	1239	1305	1171	932	647	423	254	64	10	10	10	10	10	10	10	10	85	415	659	913	865	705	625	387	108	198	305	338	529	879	1219	1233	1015	757	898	1134	1126	870	723	745	889	1259	1399
	609	780	1107	1319	1158	914	868	834	482	185	0	0	0	0	0	44	267	402	496	707	876	791	674	751	761	911	914	1066	1219	1218	1371	1670	1524	1075	1048	1085	1349	1327	1066	684	492	682	852	914	1215	1219	985	1017	905	1006	1291	1224	1319	1278	1388	1371	1219	1248	1219	1066	1174	1390	1461	1595	1594	1499	1524	1340	1237	1244	1276	1325	1353	1168	914	666	277	231	178	163	135	94	113	135	239	555	914	1152	1296	1371	1381	1211	1148	1024	891	1027	1371	1594	1677	1641	1524	1524	1523	1219	869	663	609	609	608	602	628	853	1123	1247	1466	1580	1663	1676	1676	1587	1371	1067	1175	1264	1338	1377	1477	1487	1293	1133	1007	1005	1015	1004	1130	1183	1011	766	762	851	1130	1234	1433	1523	1262	914	840	1201	1377	1204	1139	1200	1518	1772	1599	1524	1523	1384	1216	1096	729	445	236	149	129	49	10	10	10	10	10	10	10	135	472	708	785	594	433	363	190	113	233	329	509	818	1125	1330	1080	939	760	1067	1260	1168	827	787	903	1024	1372
	459	566	896	1130	1219	971	607	671	457	135	0	0	0	0	19	103	304	580	804	1042	1171	1369	1124	1128	1219	1230	1360	1512	1319	1441	1449	1373	1303	1473	1169	1075	1189	1181	1101	968	709	468	477	745	980	1001	901	1187	762	762	1182	1138	1248	1358	1371	1343	1219	1310	1482	1268	1360	1371	1364	1219	1144	1038	902	776	763	722	711	882	982	914	569	338	609	760	444	248	152	152	82	85	141	415	740	991	1187	1311	1524	1673	1676	1551	1437	1341	1080	1289	1452	1530	1524	1524	1524	1171	914	959	807	632	605	578	570	647	780	1047	1164	1254	1359	1676	1700	1450	1066	1066	1166	1524	1543	1562	1679	1524	1260	1047	1066	1091	914	1013	762	762	762	762	794	1020	1340	1503	1524	1265	1069	914	1168	1329	1612	1559	1527	1570	1642	1389	1207	1098	1010	982	934	914	772	486	305	345	235	148	69	12	10	10	10	10	10	10	248	533	655	578	339	257	177	95	183	319	580	887	1223	1433	1332	1043	835	1097	1299	922	981	1218	1067	1368	1426
	457	401	640	975	1083	793	539	328	200	0	0	0	0	0	126	319	425	609	889	1172	1330	1371	1371	1219	991	1066	1249	1371	1489	1379	1477	1523	1425	1371	1188	1171	1320	1372	1361	1341	1013	725	487	457	609	743	881	1066	914	602	683	1066	1229	1290	1334	1378	1185	1095	1220	1304	1371	1285	1217	1086	914	803	831	943	952	738	647	609	525	457	457	596	782	974	693	478	188	152	152	101	71	304	457	745	914	928	1066	1189	1272	1329	1450	1554	1524	1456	1371	1332	1331	1385	1261	1092	1089	1066	1071	762	888	588	457	509	730	914	1123	1286	1524	1640	1611	1428	1066	914	1136	1287	1473	1676	1546	1371	1369	1485	1494	1066	957	1059	914	762	939	1054	1115	1354	1278	1439	1529	1371	1288	1255	1371	1320	1488	1605	1464	1318	1130	914	762	762	762	762	625	563	539	545	707	622	313	163	165	94	10	10	10	10	10	10	84	330	517	491	336	151	106	80	206	378	611	869	1165	1513	1324	977	935	1274	1371	1300	1497	1519	1412	1512	1519
	457	302	457	630	914	726	446	251	81	0	0	0	0	20	152	383	635	980	1196	1165	984	845	756	760	819	972	914	914	1009	1219	1433	1371	1417	1395	1218	1216	1524	1523	1219	1063	1206	1110	768	570	451	520	587	623	470	460	470	580	743	997	1143	1083	914	1144	1279	1305	1371	1603	1315	1078	914	1238	1406	1319	1488	1206	1084	870	859	609	570	977	1324	1322	1067	866	769	457	142	87	79	181	597	822	936	1162	1089	1066	1066	1066	1212	1326	1412	1524	1559	1374	1214	1257	1335	1456	1524	1524	1246	1139	1118	869	546	428	512	744	1012	1183	1318	1454	1420	1117	835	762	834	913	1066	1066	1205	1219	1219	1349	1657	1559	1524	1320	1051	877	1297	1437	1373	1028	904	1388	1578	1345	1153	841	895	1181	1371	1533	1284	1225	1066	995	953	901	876	1215	974	762	950	1022	996	568	307	379	278	141	21	10	10	10	10	10	10	119	288	349	263	139	62	117	347	600	742	869	1018	1345	1215	1067	1179	1259	1012	1202	1372	1068	1079	1063	1339
	569	152	172	370	609	500	279	81	0	0	0	0	0	30	304	403	762	914	862	747	689	674	709	724	862	1137	1370	1191	914	914	914	938	1040	1155	1127	1066	1219	1158	919	1000	1298	1335	1073	844	566	304	302	273	296	424	609	541	456	602	622	750	914	1065	1066	1294	1458	1637	1466	1240	1066	1347	1371	1288	1219	1217	1268	1276	991	645	609	950	1059	1085	1147	1069	833	502	145	85	101	167	379	591	977	1355	1523	1397	1408	1448	1573	1508	1371	1424	1420	1184	1168	1371	1371	1352	1387	1454	1355	1371	1219	875	878	535	447	762	986	1066	1074	1139	1027	824	757	840	1086	1219	1450	1396	1352	1338	1478	1675	1864	1640	1451	1185	762	1168	1449	1291	978	711	724	1193	1329	1011	861	747	1272	1668	1828	1917	1885	1705	1736	1644	1676	1473	1173	1578	1245	914	1305	1051	719	608	694	633	356	150	74	10	10	10	10	10	10	10	87	201	177	95	44	100	308	601	945	1243	1333	1452	1320	1091	1118	1062	908	1116	1371	948	895	1243	1218
	141	0	0	0	0	0	0	0	0	0	0	0	0	93	152	286	381	452	489	678	794	932	1135	936	749	762	965	1260	1394	1348	1219	1116	914	633	609	914	1219	1272	914	769	923	1054	1130	1132	776	443	273	261	620	741	1219	1047	1015	950	807	979	1387	1433	1334	1281	1321	1477	1703	1497	1516	1495	1371	1371	1371	1244	1070	912	896	609	801	1022	1183	897	774	737	660	394	179	63	79	180	373	304	692	887	1171	1495	1524	1531	1554	1473	1385	1150	993	887	1371	1443	1233	1193	1142	1134	1066	1033	996	975	914	798	408	564	624	662	712	762	646	609	923	1056	1169	1218	1232	1371	1429	1182	1275	1407	1588	1248	1112	809	609	934	790	1092	801	511	837	1455	1117	839	609	825	1077	1140	1335	1586	1641	1875	1676	1576	1524	1531	1524	1548	1087	1049	1215	915	1038	1181	1031	774	412	223	173	84	10	10	10	10	10	10	10	12	55	10	11	66	269	511	760	1185	1496	1390	1234	1089	871	714	907	1215	1225	907	896	1316	1449
	0	0	0	0	0	0	0	0	0	0	0	0	21	304	431	660	425	529	944	1186	1105	1219	1291	1142	1126	969	891	914	1012	1219	1371	1029	837	611	609	1017	1267	1219	873	617	923	1219	1520	1449	988	609	321	182	609	943	1184	1092	1018	1128	953	953	1062	1171	1377	1498	1736	1622	1620	1676	1662	1416	1368	1371	1277	1139	1039	900	791	762	898	1084	1219	1240	1094	914	679	469	329	142	46	113	219	292	304	714	992	1140	1209	1320	1524	1330	1056	781	610	879	1371	1248	1260	1066	1066	1046	1021	1043	1071	1042	850	678	524	457	432	457	335	398	377	447	656	854	1061	1266	1327	1143	920	912	1145	1444	1450	1100	762	609	558	457	433	519	452	508	914	1258	774	457	682	1247	1086	1167	1066	1274	1480	1676	1426	1230	1160	1253	1434	1524	1524	1388	1414	1391	1523	1198	911	651	386	311	272	137	64	10	10	10	10	10	10	10	10	10	10	10	48	213	599	1028	1382	1396	1257	936	649	603	837	1141	1213	1071	762	906	1084
	0	0	0	0	0	0	0	0	0	0	0	0	115	437	670	917	839	551	592	914	1240	1388	1523	1478	1436	1371	1231	982	914	1062	1174	1165	946	602	521	753	914	1105	715	607	848	1085	1371	1378	1050	737	533	304	152	431	823	1189	960	900	950	901	1219	1169	1062	1066	1192	1233	1219	1219	1220	1205	1489	1456	1341	1219	1204	1219	1090	902	906	1072	1150	1216	1066	1044	880	701	519	324	145	45	102	141	150	443	665	797	1094	1467	1418	1066	762	457	648	1063	1214	1371	1368	1676	1505	1515	1432	1331	1136	963	742	705	914	943	829	830	671	531	435	304	304	408	741	1043	914	761	882	1103	1353	1519	1523	1455	914	914	1292	805	617	304	355	762	914	799	504	306	585	876	1109	1390	1523	1536	1723	1861	1590	1436	1160	914	987	1194	1511	1365	1217	1171	1082	920	644	525	569	466	296	179	112	48	10	10	10	10	10	10	10	10	10	10	10	175	561	935	1224	1125	1059	800	474	401	695	772	637	572	494	446	479
	0	72	106	0	0	0	0	0	0	0	0	1	185	538	867	1195	1114	802	597	609	944	1284	1332	1524	1418	1207	1068	1218	1218	1066	1053	914	609	666	609	445	434	609	457	803	1208	1355	1369	1371	1371	1166	914	689	457	152	533	914	1093	860	724	696	874	1078	1047	945	900	910	945	932	1075	1371	1371	1219	1219	1184	1092	1017	1016	1320	1371	1109	1039	1219	1291	1301	1098	1191	806	477	409	172	34	102	124	188	410	762	1039	1087	1160	697	457	619	899	1257	1369	1254	1143	1219	1458	1339	1219	1144	1092	884	683	1022	1226	1358	1126	1057	879	829	934	863	457	304	406	589	589	762	1119	1066	1123	1215	1293	1456	1259	1539	1266	1084	798	457	304	437	452	294	296	479	920	843	761	822	1110	1407	1716	1554	1432	1378	1053	823	762	891	1099	1219	1105	906	762	763	924	1066	809	584	351	240	156	99	45	10	10	10	10	10	10	10	10	10	10	10	213	623	911	852	667	464	246	251	299	316	386	441	482	521	494
	0	0	259	274	36	0	0	0	0	0	1	135	405	772	1052	1371	1255	1137	988	609	558	762	1239	1135	1036	972	1101	1181	1203	1303	1133	901	1145	914	914	768	681	411	457	767	1200	1371	1219	1127	1066	1089	1219	985	729	557	121	476	647	626	527	537	710	817	880	843	762	1288	1485	1371	1567	1457	1458	1473	1357	1152	914	736	914	1190	1371	1208	914	906	1146	1371	1371	1043	1066	914	641	571	233	6	10	6	457	730	907	1020	794	340	457	914	1170	1371	890	763	911	1055	1407	1593	1385	1492	1372	914	670	962	1210	1370	1214	1157	1058	1151	1261	1141	762	419	152	152	178	351	647	1066	1371	1496	1520	1550	1401	992	767	609	457	555	384	245	293	579	939	762	1249	1372	1032	851	812	1200	1345	1524	1271	1149	1263	1066	837	762	902	1051	1157	1031	996	1059	1037	915	778	601	429	263	151	113	75	37	10	10	10	10	10	10	10	10	10	10	10	172	491	559	279	152	142	297	534	836	986	1017	927	1121	1091
	0	199	461	609	202	0	0	0	0	0	201	389	609	1066	1171	1216	1523	1380	1276	1021	609	474	745	692	626	759	843	957	1097	1219	1219	1249	1166	1034	1054	776	609	544	372	719	967	1230	1371	1273	1135	914	914	909	920	669	210	138	270	298	386	525	693	817	761	761	762	1323	1356	1714	1504	1625	1524	1186	959	742	694	1116	1346	1218	1337	1264	956	842	762	914	1292	1447	1513	1241	776	627	366	6	6	90	352	637	762	457	302	364	598	898	1092	948	760	944	1066	1371	1350	1280	1097	1033	941	783	709	1096	1218	1312	1294	1219	1067	1225	1219	1194	1066	801	496	634	589	218	147	559	803	989	1056	1299	1523	1287	1207	1333	1219	838	304	247	382	954	1250	1311	1498	1666	1586	1466	1579	1828	1828	1642	1524	1524	1423	1371	1145	838	609	762	1078	1153	1184	1195	1067	945	887	709	523	322	161	120	86	52	19	10	10	10	10	10	10	10	10	10	10	10	49	156	91	119	225	300	391	614	930	1222	1299	1515	1125
	0	259	570	525	121	0	0	0	0	152	448	562	914	1261	1496	1480	1497	1219	1118	1124	1066	578	430	609	1004	1095	1354	1301	1391	1393	1371	1296	1051	762	762	609	609	457	378	593	955	1253	1370	1153	1219	1100	959	762	611	457	304	115	141	304	577	761	730	825	780	681	654	842	1123	1219	1351	1522	1280	979	616	650	877	1106	1218	1372	1372	1215	1335	1306	966	762	881	1180	1356	1114	845	534	276	6	6	301	457	458	284	182	412	667	963	914	675	609	464	591	833	1219	1066	1066	1066	936	762	653	872	1219	1066	1365	1219	1067	1219	1519	1370	1371	1083	765	947	1126	1066	675	219	242	687	1127	1368	1244	1311	1268	1219	1157	809	359	227	282	508	735	761	971	1189	1418	1558	1790	1733	1500	1359	1233	1329	1524	1295	1029	1066	762	609	699	1082	1372	1305	1170	1073	1067	989	787	588	411	260	150	150	34	10	10	10	47	10	10	10	10	10	10	10	10	10	10	55	250	498	614	525	390	594	890	1208	1363	1600
	0	0	267	209	75	0	0	0	0	372	456	570	736	903	1143	1353	1520	1524	1487	1124	855	609	441	452	719	1066	1219	1323	1137	1032	1219	1066	1111	1155	949	930	869	621	341	301	461	701	920	890	1176	1219	925	848	805	602	304	132	125	304	457	365	304	304	457	536	609	609	715	939	1132	933	661	519	584	942	1204	1370	1371	1521	1428	1517	1500	1263	1107	949	668	647	975	1173	1030	706	318	6	6	245	162	151	377	609	761	813	844	531	434	453	592	914	1355	1333	1519	1342	1487	1371	936	666	609	796	982	1307	1317	1255	1220	1182	1066	809	762	957	1259	1196	923	675	324	200	852	1157	858	909	1219	896	793	743	397	162	260	702	1192	1261	1082	1084	1180	1332	1389	1344	1381	1471	1193	1061	988	1066	1219	1028	914	598	603	685	932	1185	1079	1026	943	866	753	647	489	317	266	190	159	151	10	10	10	81	152	10	10	10	10	10	10	10	10	10	107	396	683	882	932	801	578	644	873	1076	1387
	0	0	0	0	0	0	0	0	0	239	390	590	975	1371	1203	1217	1524	1306	915	762	941	870	638	393	457	927	1217	1128	923	879	1046	1219	914	939	1171	1167	1027	964	790	500	298	333	529	747	938	1000	1183	1068	805	609	590	218	85	136	210	299	609	777	957	914	953	754	609	630	633	479	526	762	762	910	1127	1097	1370	1417	1559	1643	1552	1301	1245	1371	1066	795	609	880	914	1066	707	457	35	6	6	304	609	609	762	791	667	443	426	762	974	1066	1001	927	1105	1449	1370	1338	990	762	778	556	639	967	1066	1148	1371	1096	869	897	1154	1647	1623	1126	714	609	217	304	538	685	762	908	1243	1072	940	609	177	152	378	762	1066	1192	1356	1371	1520	1340	1232	1125	1219	1143	869	714	563	526	499	563	486	491	503	585	743	969	903	813	764	707	631	521	431	547	513	391	355	258	61	10	10	11	141	150	10	10	10	10	10	10	10	10	105	313	726	1011	1125	1027	902	739	683	803	1009
	0	0	0	0	0	0	0	0	0	0	142	472	831	1229	1371	1219	1371	1481	1430	1271	1066	1089	981	481	369	609	712	757	762	849	1055	1118	965	762	774	1044	1219	1116	988	796	577	295	280	432	594	914	1089	972	779	957	656	356	114	129	429	809	980	762	1156	1371	1119	933	882	893	543	453	667	914	1183	1230	1181	1055	1228	1604	1716	1670	1371	1402	1410	1341	1234	898	656	582	544	534	306	162	6	6	6	371	609	609	609	735	643	434	394	580	609	619	740	862	1159	1524	1524	1197	989	965	1080	829	448	392	677	1134	1162	870	1371	1589	1828	1981	1638	1371	1089	694	340	176	127	259	487	709	1131	914	602	377	138	325	846	1080	969	893	1107	1259	1377	1219	914	762	657	609	603	723	990	1015	875	609	457	457	449	430	561	697	651	600	533	487	457	475	576	693	610	499	457	582	294	12	10	10	152	152	140	10	10	10	10	10	10	10	116	305	642	966	1230	1186	1082	887	920	920	814
	0	0	0	0	0	0	0	0	0	0	53	609	888	1149	1524	1349	1329	1481	1391	1233	1001	900	746	455	349	440	773	911	1041	1002	1060	1371	1066	894	762	827	1045	1150	1311	1144	927	650	385	284	290	515	937	896	1219	1004	762	687	253	89	341	609	1103	1066	1039	1174	1066	919	942	749	304	486	705	1105	1217	1066	1098	1218	1239	1425	1675	1630	1520	1371	1463	1340	1081	918	876	911	675	483	419	282	27	6	6	152	304	235	383	609	557	341	457	699	747	640	809	1014	1436	1402	1185	1066	919	1110	1459	1346	829	325	304	559	762	688	1371	1227	1219	1250	1309	939	613	685	719	484	216	127	328	575	914	786	743	371	139	422	875	1219	1371	1371	1371	1310	1371	1274	1099	1014	1043	1219	1268	1288	1370	1368	910	762	931	945	669	304	304	453	610	734	710	791	734	717	758	767	610	610	515	436	377	87	10	10	75	152	152	73	10	10	10	10	10	10	134	350	623	1017	1319	1283	1111	995	953	1127	1019
	0	0	0	0	0	0	0	0	0	0	200	524	649	777	1162	1524	1676	1420	1118	843	648	609	609	609	335	327	741	1005	1219	1308	1206	1235	1219	1082	762	636	757	857	1104	1366	1265	1091	762	457	284	255	408	574	1066	1202	986	532	288	74	131	457	983	1128	1086	762	757	914	1066	914	365	304	710	1125	938	713	1066	1233	1273	1495	1656	1524	1432	1232	1208	1070	948	1015	1066	766	914	756	692	324	437	107	6	6	6	6	6	336	279	457	683	894	1066	1266	1215	1201	1082	1219	1216	1070	964	1147	1316	1171	914	990	457	304	343	578	999	1473	1374	1108	914	762	1178	1184	964	688	304	112	220	594	504	304	196	121	144	440	524	595	609	723	751	984	1307	1762	1695	1646	1524	1427	1168	1003	1106	1224	889	994	1219	1066	861	491	302	405	634	928	971	1077	1206	1078	913	750	609	528	481	383	251	127	10	10	10	48	100	137	30	10	10	10	10	10	159	539	888	1117	1408	1380	1217	1220	1040	1260	1323
	83	1	0	0	0	0	0	0	0	0	0	214	533	754	929	1082	1331	1427	1083	922	754	898	1051	762	418	279	543	832	1106	1029	914	726	762	629	585	688	903	928	1141	1333	1229	1053	1066	895	666	317	260	439	683	1092	972	769	347	94	152	521	755	1057	875	609	874	1086	1028	762	761	441	427	939	940	766	562	762	1291	1219	1219	1330	1524	1524	1301	1395	1313	1084	990	1154	894	640	762	810	914	559	205	6	6	6	6	6	81	278	584	913	880	1006	883	780	843	1066	1082	975	1160	1397	1399	1053	754	800	1219	722	304	152	420	762	1066	1371	1436	1357	1371	1129	868	663	304	138	111	246	103	140	181	316	397	762	850	762	698	623	706	1309	1295	1073	1260	1204	1029	782	578	578	669	863	1103	1285	1416	1215	977	578	290	380	607	924	1177	1325	1290	1079	1049	928	706	530	412	311	210	145	10	10	10	12	152	152	22	10	10	10	10	10	117	411	801	1037	1148	1139	1286	1281	1146	1398	1452
	198	75	0	0	0	0	0	0	0	0	0	132	457	805	1180	1370	1154	1207	1338	1219	914	993	1163	866	468	298	364	571	640	536	499	457	457	530	609	1000	1219	1141	1371	1495	1242	1000	904	959	643	394	213	304	762	1059	1219	712	345	84	56	354	743	1066	842	609	803	1074	1037	808	536	609	379	304	326	400	664	609	713	825	913	1091	1348	1524	1405	1482	1277	1102	975	682	609	920	914	1086	940	622	418	314	293	229	156	6	6	6	152	414	413	426	413	440	456	619	740	1202	1309	1264	844	663	727	1168	1183	947	1025	435	151	151	408	820	1128	1321	1219	1089	897	815	609	266	121	90	98	134	274	609	834	1067	1226	1442	1365	1361	1295	1219	844	713	610	596	579	593	743	783	510	473	707	865	914	1000	762	304	277	460	730	1087	1323	1342	1200	1134	1137	1088	887	687	482	346	205	162	50	10	10	30	136	152	80	10	10	10	10	10	101	386	509	637	730	821	970	1158	1372	1371	1204
	145	132	0	0	0	0	0	0	0	0	0	72	304	534	932	933	1011	1188	1371	1143	1253	1150	877	609	609	365	274	304	423	455	552	633	763	654	609	762	1078	1215	1249	1098	1130	823	654	609	417	284	241	530	582	842	1066	762	356	52	1	210	457	629	580	578	859	1066	1080	1066	762	377	342	249	244	303	675	1042	1017	905	1066	1366	1523	948	914	1066	1319	762	459	681	967	1219	948	992	933	888	761	437	303	324	172	7	6	6	22	126	285	437	445	636	914	1066	828	822	1039	1066	661	607	875	1092	772	939	1143	828	779	243	125	304	800	1066	1219	1168	809	611	609	609	457	133	76	111	304	609	838	925	1216	1025	913	1062	1260	1319	970	729	674	879	1089	1317	1139	762	715	583	457	457	483	638	307	274	319	568	969	1219	1165	1006	915	917	906	728	775	714	545	417	328	247	172	49	10	10	20	69	27	10	10	10	10	10	123	379	524	555	552	556	659	838	1049	1260	1370
	43	1	0	0	0	0	0	0	0	0	0	60	304	576	762	960	1320	1371	1253	977	1219	861	762	875	701	417	304	284	410	685	942	1019	874	877	914	859	903	1113	979	914	914	971	867	594	262	198	402	702	961	761	1022	979	680	291	1	1	1	224	405	677	865	1112	1243	1083	817	564	253	158	304	522	700	913	1028	1055	1066	1185	1317	864	777	876	1175	762	457	549	914	1118	901	755	668	609	635	617	288	139	6	6	6	6	6	320	660	1066	952	850	862	1139	1219	1213	1212	1102	716	498	557	580	607	744	1087	1219	1066	626	361	133	171	351	655	914	914	989	791	638	202	76	76	76	177	376	631	696	783	784	1066	1238	1424	1219	1054	1205	1240	1191	1219	924	902	924	1206	1219	939	681	353	301	274	274	555	944	1046	1366	1067	1044	1367	1223	1062	858	643	562	493	452	381	315	240	153	18	10	10	10	10	10	10	10	10	56	349	658	928	1157	1187	927	760	678	778	910	1108
	0	0	0	0	0	0	0	0	0	0	0	59	496	818	1138	1219	1371	1188	794	829	1066	1134	1158	971	730	609	349	262	414	710	928	1052	1218	914	959	1155	1025	1242	1433	1204	1065	914	698	293	198	384	554	839	1239	1077	914	827	632	405	79	1	1	113	438	848	1011	880	1219	997	762	591	392	158	275	554	892	981	975	1204	1314	1227	1067	1039	914	777	777	777	657	455	600	894	1207	907	818	703	624	443	251	75	6	6	6	6	152	397	759	894	803	760	1026	958	1019	1066	1219	762	742	527	452	572	799	1178	1320	1370	1070	1066	811	628	224	103	76	76	146	320	131	76	76	76	76	76	319	457	456	456	510	639	829	1046	965	1332	1331	964	1066	1371	1140	1219	1218	1219	951	762	655	658	420	274	274	393	763	1106	1274	1261	1371	1254	1134	1020	789	660	782	888	762	626	467	305	280	194	78	10	10	10	10	10	10	10	10	104	308	670	1018	1278	1279	1240	937	724	876	901	944
	0	0	0	0	0	0	0	0	0	0	0	0	457	717	1066	1223	1077	871	655	606	640	762	1020	1012	554	351	289	282	494	546	719	1006	1219	862	854	1008	1017	1104	1348	1183	868	666	400	259	213	571	940	979	1163	1278	1015	794	762	502	179	1	5	1	326	762	999	1218	1120	1058	1012	630	267	158	158	396	800	1066	893	865	1012	1219	1371	1066	835	960	844	476	470	338	624	1157	1219	1066	887	648	609	356	227	6	6	6	6	12	20	264	532	598	679	721	828	761	1066	1293	997	1219	762	444	447	618	914	1110	1371	1362	1162	866	609	634	762	762	499	190	76	76	76	76	76	76	76	227	445	736	737	555	457	592	609	678	881	1257	1105	795	1015	1218	1219	1087	914	863	914	935	575	337	274	274	376	640	1057	1204	1109	1068	1169	1093	922	782	849	992	1115	1076	846	610	540	416	270	186	90	10	10	10	10	10	10	10	27	134	264	536	910	1369	1230	1130	930	838	1054	1115	1074
	0	0	0	0	0	0	0	117	0	0	0	0	253	672	1078	1218	988	762	762	664	457	609	876	926	472	285	213	511	785	820	779	1021	1193	941	609	609	838	1103	1168	1128	998	790	372	218	284	609	1066	1033	1325	1256	1066	731	598	326	147	1	1	1	304	809	1067	815	895	1066	815	533	292	158	158	330	566	718	760	953	1218	1100	938	777	910	1066	918	506	347	304	793	1105	1371	842	650	304	320	54	6	6	6	6	6	6	53	278	570	845	914	868	609	672	896	889	635	628	480	423	569	863	1000	1219	1553	1657	1497	1066	594	304	304	247	253	248	76	76	76	76	76	144	287	566	878	1371	1219	919	615	609	1032	960	851	741	791	721	814	1024	1219	1083	1025	1317	1221	871	527	290	274	291	609	899	1218	1163	975	848	888	926	926	1009	1150	1138	1079	885	839	744	552	471	285	174	86	10	10	10	10	10	10	10	45	146	255	450	732	1237	1372	1371	1268	1124	1044	1214	1228
	0	1	1	0	0	0	0	0	0	0	0	0	178	505	929	1086	931	1066	919	806	453	429	712	646	385	224	388	762	944	1253	949	828	609	546	457	625	736	757	856	914	716	322	251	193	609	959	1016	765	886	977	1167	1100	786	395	135	1	1	117	396	762	1091	870	737	870	838	628	268	158	158	440	706	989	1065	1018	798	760	761	1031	1340	1220	1147	602	306	301	531	914	1153	966	729	277	18	6	6	6	23	6	6	6	184	515	741	609	752	914	914	659	572	510	431	374	425	580	914	1066	910	896	1156	1335	1451	1300	1125	825	549	755	457	78	76	76	76	430	609	631	762	707	743	959	1219	1219	914	1015	1219	1011	762	598	589	550	558	746	914	1042	1058	950	860	647	330	274	274	491	806	1117	1219	1015	914	703	692	758	967	1183	1220	1046	1048	1041	905	653	458	334	255	156	52	10	10	10	10	10	10	10	31	98	231	457	676	1095	1315	1202	1192	1220	1266	1227	1157
	220	164	56	0	0	0	0	0	0	0	0	124	414	762	950	1128	1338	1172	856	609	484	304	291	257	182	360	583	811	1290	1198	762	609	846	914	609	456	456	735	1073	732	393	270	195	288	553	961	1177	814	762	761	796	962	579	147	1	1	1	56	327	684	997	991	727	500	329	194	158	158	256	661	915	787	609	610	717	974	1056	1219	1000	961	1018	672	254	152	399	762	959	808	609	268	6	6	6	6	6	6	6	124	516	822	986	914	914	1066	936	699	457	343	356	494	729	1012	1175	1156	1066	762	762	978	1059	1016	1147	941	1033	708	226	76	76	76	510	888	914	762	912	1066	902	914	846	934	851	1039	903	763	748	762	1210	808	590	505	709	1032	1073	1078	1050	710	400	274	294	762	851	762	720	612	618	689	755	918	897	1139	1283	1215	1115	915	689	525	438	305	173	96	10	10	10	10	10	10	10	95	28	10	178	372	644	1063	1003	1198	1281	1319	1523	1249	1065
	304	119	0	0	0	0	0	0	0	0	25	220	604	798	980	1104	1216	1202	1104	928	609	298	221	269	343	497	762	1219	1219	1066	1218	1218	1113	873	473	385	420	654	968	534	309	230	304	374	712	776	1066	1192	1081	873	667	625	449	181	1	1	18	227	385	762	886	1105	885	626	304	158	158	496	743	1065	762	460	638	899	1084	912	1066	1219	731	609	488	457	304	128	298	805	679	781	642	304	6	6	6	6	6	6	6	242	609	1052	1092	914	1066	1123	762	589	326	336	457	626	821	1298	1371	885	914	982	609	609	634	605	762	762	510	305	152	76	76	76	711	995	764	753	738	706	686	676	679	684	665	738	1017	976	1219	1198	1176	762	808	535	580	900	1107	1218	1036	762	732	304	274	304	488	436	613	685	925	941	762	952	1065	1061	1316	1350	1098	863	731	542	370	266	148	90	30	10	10	10	10	10	10	168	59	10	41	335	671	916	965	1299	1487	1470	1401	1284	1197
	124	1	0	0	0	0	0	0	0	36	141	518	829	1066	1052	926	914	1112	1112	821	517	320	146	187	267	473	715	640	914	1124	1218	1178	842	656	457	310	380	711	913	446	278	170	201	376	748	1066	1219	1159	914	889	947	684	338	72	1	1	210	354	562	846	1055	934	679	277	158	158	446	427	636	609	453	566	609	914	1159	1385	1210	1218	979	846	876	914	322	134	152	645	412	343	152	152	80	6	6	6	6	6	98	381	914	1031	914	861	995	1066	707	304	300	669	838	888	995	993	825	726	762	1219	914	609	581	535	431	298	346	457	131	76	76	113	652	933	771	704	640	734	913	1058	804	762	1032	939	642	800	977	1030	1212	1215	849	518	536	762	1073	1126	1066	925	689	353	248	278	302	457	679	914	978	1109	879	1009	1219	1196	1319	1195	1102	1059	965	808	478	273	162	90	16	10	10	10	10	10	16	256	163	10	10	155	444	811	1015	1341	1378	1121	923	914	888
	1	0	0	0	0	0	0	0	1	304	555	776	1030	1066	1066	993	892	978	1001	925	832	559	239	145	144	194	304	475	914	1028	1075	1066	927	977	511	292	424	813	762	335	185	152	222	347	672	1087	1254	1253	986	785	764	529	304	290	7	1	55	293	664	1013	1139	609	431	195	158	158	158	276	301	329	486	762	1042	1034	1209	1257	1026	888	998	1307	1066	548	152	114	131	319	152	152	261	170	6	6	6	6	6	87	216	370	634	753	832	906	1068	762	416	397	497	677	997	982	762	609	609	659	1134	1123	1154	1112	1067	609	152	106	304	457	76	76	76	101	665	765	721	683	645	743	946	1055	1066	975	1105	1218	914	700	609	608	831	951	688	460	645	1066	1057	1066	1066	951	661	424	270	250	289	364	555	795	1066	1218	1032	1035	1219	1228	1181	1066	999	1031	888	672	520	562	389	152	151	10	10	10	10	10	10	148	170	10	10	122	417	670	950	1315	1361	1148	1180	1095	883
	11	0	0	0	0	1	3	1	225	408	524	762	895	902	844	758	797	913	916	900	832	762	480	366	194	144	144	277	500	859	1045	914	886	986	539	281	411	770	457	245	159	160	356	630	968	1046	1066	1182	1071	913	762	409	152	60	1	1	101	406	836	1095	1148	939	420	190	158	231	158	231	461	453	575	914	1100	837	759	761	803	949	1066	760	619	448	144	81	109	138	188	288	304	6	6	6	6	6	222	323	304	472	585	851	1064	1218	978	813	546	276	445	762	1154	888	609	759	915	784	1066	1251	1109	819	457	121	106	130	430	152	76	76	76	76	457	507	475	447	451	519	762	974	1066	975	1039	1188	1066	914	779	609	457	457	458	507	914	1049	1066	1066	1066	905	814	609	383	268	249	341	443	659	969	1065	931	1190	1192	1053	1042	1122	1286	1216	1185	856	766	718	610	412	152	33	10	10	10	10	10	17	91	33	10	50	316	517	728	1068	1061	878	912	828	737
	0	0	0	0	0	1	50	152	293	299	455	546	609	762	609	715	824	845	869	803	743	731	638	564	375	205	144	145	298	549	798	678	808	863	609	330	343	489	279	161	151	285	571	875	939	1036	1066	1021	971	810	535	275	130	10	1	9	116	345	674	884	1063	951	707	262	158	158	209	269	410	434	588	794	706	609	912	914	1017	1087	1219	935	628	320	134	70	91	132	357	304	79	6	6	6	6	190	457	304	518	914	1089	1174	1219	1066	944	1066	762	339	372	752	914	918	595	457	884	1269	1175	806	478	125	106	106	305	302	181	76	76	76	76	76	159	304	305	372	374	417	457	738	988	808	845	886	889	1219	1109	754	803	707	444	418	551	679	727	838	1066	909	728	617	519	363	202	316	390	512	794	911	880	1090	1221	1170	1046	990	1172	1230	979	813	703	572	499	460	255	34	11	11	10	10	21	10	10	14	10	10	123	336	581	797	683	475	335	330	282
	0	0	0	0	0	0	65	152	127	174	290	400	436	457	609	680	729	707	691	649	619	546	504	419	313	209	147	150	209	295	487	457	700	684	544	344	222	280	219	152	187	446	543	619	778	886	919	855	795	622	492	203	67	1	1	293	197	124	478	961	1066	975	710	304	204	158	293	304	307	312	375	456	609	772	822	995	1157	1040	913	868	660	296	117	76	35	99	131	37	6	6	6	6	219	608	457	304	571	921	1268	1541	1294	1023	787	762	624	304	457	727	1099	1073	714	456	762	1082	737	228	106	106	106	254	326	330	152	76	76	76	76	175	451	463	457	468	481	388	396	465	593	607	687	769	893	1056	1072	954	729	458	628	499	302	293	369	457	609	599	562	518	457	321	304	193	329	419	572	631	922	1156	1372	1321	1123	912	1005	972	784	539	409	348	441	457	344	59	10	10	10	128	304	181	25	10	10	10	148	441	421	298	213	234	308	276	286
	0	0	0	0	0	0	0	1	47	152	205	217	269	386	431	402	397	376	426	388	386	355	310	247	145	112	61	109	140	205	285	384	498	473	398	281	227	188	168	150	194	337	448	609	745	769	766	647	506	325	193	1	1	1	204	309	158	133	325	762	1032	884	595	345	250	170	158	210	304	299	419	762	977	917	938	1066	1059	950	875	765	474	147	78	28	6	6	9	6	6	6	6	188	440	606	528	327	573	801	1219	1219	1366	1219	926	914	822	532	296	563	799	1028	750	384	409	527	153	106	140	154	304	272	300	294	76	76	76	76	133	284	434	576	591	524	560	449	374	443	563	703	887	989	1066	914	762	754	609	762	988	881	805	431	352	229	339	339	335	317	319	304	241	174	231	321	431	544	771	1077	1259	1229	1219	927	717	641	520	305	304	304	356	454	428	211	10	10	10	92	160	212	64	10	10	20	191	147	152	152	196	302	416	439	572
	0	0	0	0	0	0	0	0	69	122	92	74	68	104	80	74	114	145	167	178	190	193	173	141	108	77	60	74	118	145	197	248	285	276	230	181	146	142	152	147	150	304	427	527	556	494	433	318	231	107	23	1	1	25	444	380	152	152	304	823	921	915	803	526	315	246	179	151	152	288	621	811	890	913	1055	1066	914	876	839	771	304	66	6	9	6	6	6	6	6	6	171	487	547	548	494	349	521	883	1066	1117	1219	839	609	605	502	290	210	389	776	731	403	150	106	106	144	172	152	283	346	365	222	304	139	76	76	76	192	510	761	621	537	425	392	359	467	535	589	675	762	925	1066	987	958	740	609	958	1066	948	696	555	694	447	304	238	152	152	152	152	155	154	152	249	351	421	549	856	1096	1207	1110	976	768	524	328	304	304	297	309	443	457	290	54	10	10	10	10	63	85	10	10	10	63	105	328	386	250	213	237	457	533
	0	0	0	0	0	0	0	0	32	14	0	0	0	0	0	0	0	30	51	94	100	98	108	94	79	64	60	70	85	107	133	158	178	172	154	127	103	110	139	152	147	239	352	375	336	266	183	132	42	1	1	1	1	1	201	304	124	171	293	509	787	787	761	711	301	248	183	142	176	365	553	694	810	907	947	922	818	779	702	462	94	6	6	6	7	10	8	6	6	206	690	621	598	575	424	481	768	950	949	1066	1218	1153	896	762	407	153	336	501	542	226	106	106	106	133	344	500	516	779	609	304	303	278	206	76	76	76	101	457	495	464	304	352	475	623	606	659	760	946	955	955	1066	999	963	714	713	977	1198	980	1020	905	1066	914	775	457	412	457	518	441	457	286	153	157	201	286	391	593	882	1067	962	878	770	532	375	197	164	141	198	272	305	271	205	130	10	10	10	10	10	10	10	10	108	296	532	695	471	222	213	322	622
	0	0	0	0	0	0	0	0	0	0	0	0	0	0	0	0	0	0	0	0	26	21	52	61	48	45	58	45	52	67	95	120	143	136	117	97	74	60	60	60	150	199	241	264	213	125	1	1	1	1	1	1	1	112	135	304	217	163	329	552	735	707	720	663	329	253	162	112	192	339	490	628	812	914	846	765	448	363	199	53	6	6	13	24	14	14	15	40	130	609	667	602	535	451	419	484	602	850	762	1039	1088	1000	759	574	299	150	134	106	106	106	106	243	467	579	762	1079	913	929	647	387	304	261	133	76	76	76	76	159	258	293	352	457	894	991	941	750	760	935	943	1050	1066	891	762	752	680	805	942	963	762	914	1066	848	794	743	538	762	897	630	802	645	468	231	136	151	254	376	594	914	851	745	591	445	287	154	74	54	101	127	167	277	288	226	149	10	10	10	10	10	10	10	310	674	787	804	478	164	320	443	673
	0	0	0	0	0	0	0	0	0	0	0	0	0	0	0	0	0	0	0	0	0	0	0	0	15	18	26	21	31	44	59	86	100	95	83	72	58	54	46	56	93	99	136	160	157	106	40	3	1	1	1	23	117	100	123	243	187	171	274	400	537	609	595	478	381	287	180	105	200	301	408	581	720	716	609	352	149	111	65	2	6	10	13	16	15	22	63	119	326	457	612	550	495	443	432	500	612	761	762	909	951	799	555	336	148	106	106	106	124	380	476	789	862	997	1077	1174	969	1066	694	470	302	295	288	88	76	76	76	152	238	328	441	498	672	766	792	827	841	871	914	835	775	943	957	972	970	731	735	698	683	745	904	1219	1066	762	863	846	1078	978	1022	818	526	363	292	134	124	258	404	700	721	576	467	323	206	66	30	94	162	240	334	436	457	287	182	10	10	10	10	10	10	34	413	827	914	817	293	182	357	562	522
	0	0	0	0	0	0	0	0	0	0	0	0	0	0	0	0	0	0	0	0	0	0	36	4	0	0	0	0	0	0	17	46	61	62	61	40	31	30	24	30	34	31	60	75	73	43	1	1	1	29	82	151	152	103	63	95	129	166	219	294	392	448	348	316	314	255	186	100	150	266	359	444	466	328	230	148	128	87	12	2	11	22	16	14	14	51	92	142	456	450	457	457	457	457	368	472	609	609	762	777	774	557	304	153	110	106	106	277	629	836	762	998	1178	1035	1066	1103	1013	1047	847	570	288	146	76	92	76	76	76	76	138	248	304	457	762	761	762	865	1104	883	762	762	1086	1049	1057	1064	914	885	995	988	751	681	833	1035	1070	885	914	1066	1018	1219	926	626	600	762	559	280	102	173	218	293	408	285	156	202	73	25	25	30	116	208	327	457	457	284	166	12	10	10	10	19	282	391	681	913	848	444	80	30	30	266	141
	0	0	0	0	0	0	0	0	0	0	0	0	0	0	0	0	0	0	0	0	0	6	535	30	1	1	0	0	0	0	0	0	0	0	0	0	5	4	3	1	1	1	1	1	2	4	1	1	1	127	152	152	152	152	16	21	50	130	189	239	256	265	258	267	211	176	155	65	152	207	239	295	222	147	145	130	119	107	27	1	6	17	13	14	30	72	115	152	456	427	420	425	457	500	382	421	457	608	689	656	521	291	106	106	106	106	143	692	914	1041	1035	1052	1115	1066	859	762	782	658	702	559	152	76	76	76	76	76	76	76	146	265	452	363	666	754	939	908	942	792	759	974	1087	1026	1000	1014	1218	1201	914	914	719	651	762	938	958	914	977	1049	1139	981	836	953	946	926	633	415	209	154	30	149	32	29	28	30	30	13	151	152	152	42	95	197	147	25	9	30	12	10	10	120	504	751	912	942	554	166	30	30	30	29	23
	0	0	0	0	0	0	0	0	0	0	0	0	0	0	0	0	0	0	0	0	0	0	2	3	1	0	0	0	0	0	0	0	0	1	1	0	1	2	7	1	1	1	1	1	1	1	1	1	1	1	32	1	1	1	1	1	1	40	101	133	167	168	163	152	110	85	53	56	112	126	143	143	115	90	79	64	52	45	33	1	1	1	14	19	48	85	128	196	295	335	356	368	395	400	325	381	496	609	609	400	260	143	106	106	116	200	399	761	922	1004	950	856	762	1049	961	733	524	304	290	183	118	76	76	76	76	76	76	106	329	457	609	304	358	549	791	1003	961	680	679	952	1066	915	918	812	892	850	785	671	594	535	601	609	609	629	876	1121	1068	1004	1037	1128	1100	864	542	295	284	204	118	27	24	22	23	24	21	8	14	8	8	8	8	45	193	292	438	504	333	42	15	81	440	762	789	747	369	35	29	27	25	23	20
	0	0	0	0	0	0	0	0	0	0	0	0	0	0	0	0	0	0	0	0	0	0	0	20	34	30	22	1	1	2	1	3	6	19	30	19	26	52	60	56	30	152	152	24	4	10	36	124	82	51	42	53	53	41	33	17	1	1	1	14	48	64	60	66	54	33	30	53	62	58	63	67	62	44	27	20	3	1	1	1	3	39	19	16	60	97	147	177	233	264	304	306	308	306	304	307	457	462	361	264	198	121	109	189	295	576	914	986	1053	976	897	850	636	779	640	536	396	249	193	121	77	76	76	76	76	76	76	76	76	127	316	273	273	355	573	914	639	457	762	907	1049	1144	1081	762	762	654	609	480	438	472	854	1040	996	669	685	799	1060	1213	1068	933	820	647	455	305	228	152	27	21	18	15	12	9	8	25	67	174	129	329	390	451	596	669	761	684	489	187	15	21	186	268	497	404	196	29	27	25	23	21	20
	0	0	0	0	0	0	0	0	0	0	6	9	6	3	1	1	0	0	0	0	0	0	1	1	23	30	17	1	7	11	14	20	28	34	32	30	30	51	60	60	61	88	87	66	49	60	110	182	275	304	304	304	213	117	54	35	12	6	9	13	30	30	30	30	30	30	30	36	35	30	30	35	33	25	11	1	1	1	3	15	30	26	15	23	52	94	133	138	143	150	229	256	267	293	303	304	329	301	237	189	156	119	254	675	833	798	883	959	966	909	823	719	580	458	457	324	261	163	152	76	76	133	164	138	243	172	76	76	76	76	103	135	139	150	313	435	456	578	628	762	961	1102	1076	1066	978	922	1066	704	408	506	835	1036	984	762	890	768	806	1066	1219	960	832	886	765	329	305	153	18	15	12	9	8	26	163	205	255	401	630	763	743	734	873	869	678	445	174	16	15	15	85	29	65	30	28	27	24	22	20	20	20
	0	0	0	0	0	0	0	0	0	30	39	46	42	34	35	27	16	7	7	5	20	26	14	3	1	1	2	4	14	19	24	29	32	43	54	49	30	30	43	48	58	49	61	53	60	65	82	121	156	192	200	170	134	88	60	57	59	64	63	60	64	66	62	48	36	29	25	30	28	26	25	23	20	11	2	1	1	2	5	11	15	14	14	25	57	91	103	113	126	138	151	152	166	281	304	304	283	213	143	130	180	356	762	914	884	876	892	914	890	807	752	678	565	459	457	418	177	152	285	76	107	453	364	347	370	457	155	76	76	76	90	106	117	134	149	336	647	913	914	883	927	915	859	1013	1190	1197	905	663	365	482	786	1066	1022	1002	1015	986	1066	1066	1066	1125	1120	757	559	274	219	136	8	8	8	8	8	15	210	475	685	799	803	752	557	420	510	555	373	174	16	15	15	97	223	59	27	27	26	24	23	21	20	30	20
	0	0	0	0	0	0	0	0	0	30	53	60	60	55	57	55	47	28	22	24	28	30	32	31	30	19	21	25	28	29	29	30	30	31	47	53	30	30	30	30	30	30	30	30	39	50	57	67	73	78	95	87	73	65	62	67	83	85	85	87	92	91	83	67	47	27	25	30	27	23	19	14	8	2	1	1	1	3	6	8	10	11	14	30	56	71	73	86	103	119	135	144	152	199	245	249	182	148	91	190	280	416	609	682	762	754	765	762	712	682	654	620	556	462	392	310	167	152	76	117	438	457	456	455	456	457	163	94	152	101	103	97	94	115	140	304	563	762	944	1219	944	758	858	1066	1135	979	697	395	376	566	874	908	1009	1219	1066	1024	1014	764	719	813	923	868	427	198	152	152	17	8	8	8	18	123	277	643	914	797	649	381	170	15	20	86	64	16	15	17	143	295	304	204	27	23	23	22	21	20	20	20	27
	0	0	0	0	0	0	0	0	0	0	30	56	53	52	60	64	85	86	46	30	30	37	49	57	60	47	47	53	56	45	36	30	38	38	30	30	42	43	35	34	33	31	30	30	29	30	35	36	44	60	61	56	52	60	75	89	102	101	96	97	102	96	85	70	44	19	27	30	25	19	14	8	3	1	1	1	2	4	6	7	9	10	13	30	35	38	45	48	48	68	75	92	129	148	148	147	103	86	143	247	304	375	447	468	549	611	616	590	571	574	548	495	446	420	346	246	120	76	76	347	481	585	440	341	298	258	183	184	213	128	114	110	108	106	132	304	547	762	1025	914	751	609	805	910	755	695	505	304	463	682	879	1042	1191	1066	928	782	846	727	447	444	544	478	242	154	178	33	15	8	8	18	194	363	559	789	838	684	330	69	14	14	15	15	15	15	15	15	29	60	213	275	148	21	20	20	20	20	17	20	56
	0	0	0	0	0	0	0	0	0	0	0	0	17	30	47	60	69	82	67	61	30	40	60	89	72	63	61	61	60	60	61	64	66	62	62	66	76	70	56	49	40	31	30	30	24	15	19	21	26	17	12	17	30	41	65	74	85	81	80	94	95	91	60	34	12	24	49	30	22	13	6	1	1	1	1	2	4	6	7	8	8	10	11	12	12	14	17	20	20	27	28	41	72	98	80	60	78	131	152	209	295	303	302	347	419	456	488	501	486	462	398	304	290	289	255	178	104	76	76	322	466	473	318	295	249	152	196	278	304	152	128	120	111	106	152	370	625	988	1109	888	675	456	587	762	625	321	342	511	693	630	1027	1127	1071	990	762	609	429	330	213	145	151	130	55	8	8	8	8	8	8	16	130	265	457	675	666	605	298	17	13	13	14	15	15	15	15	16	27	27	29	129	207	26	17	16	15	15	15	15	19
	0	0	0	0	0	0	0	0	0	0	0	0	0	0	19	27	33	43	56	60	60	60	80	91	85	69	63	71	79	91	89	91	93	101	107	113	115	119	103	74	55	31	30	30	30	33	30	24	27	30	46	55	33	9	30	35	31	26	34	60	74	47	26	16	13	30	62	23	6	1	1	1	1	2	3	5	6	7	8	8	9	10	11	11	12	14	14	14	14	14	18	25	31	53	60	60	77	127	140	148	152	242	252	283	316	320	384	457	412	310	282	275	248	236	201	165	104	76	113	297	307	262	271	286	291	285	298	335	467	152	124	100	92	93	144	345	674	974	1066	964	762	508	361	318	251	349	529	782	1066	1017	979	1193	1342	1142	796	528	301	157	133	42	8	8	8	8	8	9	10	12	12	14	24	112	300	491	489	407	220	14	11	12	14	28	151	16	15	28	23	22	21	20	16	19	15	15	15	15	15	15	19
	0	0	0	0	0	0	0	0	0	0	0	0	0	1	0	11	14	19	25	33	42	54	66	79	90	75	64	62	67	78	83	91	100	115	121	121	127	131	133	126	116	82	60	58	70	88	81	80	83	91	91	91	51	24	2	10	10	9	19	30	33	17	11	7	7	20	17	1	1	1	1	2	2	3	5	5	6	8	8	9	10	11	12	15	25	21	18	18	20	21	25	30	34	53	60	60	75	112	125	135	147	188	199	237	254	257	269	276	271	247	277	242	207	189	173	158	60	46	106	186	206	192	231	281	298	301	303	457	416	203	120	85	99	127	181	451	645	762	915	836	678	512	356	197	304	531	782	931	1194	1218	1048	1173	1027	844	650	457	228	152	150	133	146	8	8	78	218	70	8	8	8	9	10	14	22	23	109	94	15	11	10	10	11	13	15	21	151	27	16	15	15	15	15	15	15	15	15	15	15	15	29
	0	0	0	0	0	0	0	0	0	0	0	0	0	0	1	1	1	1	8	11	18	30	42	60	61	58	40	32	39	58	65	69	89	91	82	98	108	108	117	122	125	121	121	116	121	121	121	109	91	83	60	33	23	1	1	1	1	1	1	1	1	1	1	1	1	1	1	1	1	1	1	1	2	2	3	4	6	7	8	9	11	14	14	21	30	30	30	30	30	30	30	30	40	54	60	60	74	100	113	125	137	148	162	181	195	206	212	219	242	273	279	226	165	138	119	97	55	45	139	276	304	299	213	253	290	316	414	451	337	152	68	70	113	152	152	403	616	751	1066	879	609	304	182	237	400	650	1002	1066	1037	787	869	997	1000	762	502	302	192	152	156	167	341	554	543	416	225	117	8	8	8	8	8	8	8	10	10	10	10	10	10	10	10	10	14	19	15	15	15	15	15	15	15	15	15	15	15	15	15	36	362
	0	0	0	0	0	0	0	0	0	0	0	0	0	0	0	1	1	1	1	1	1	0	18	30	33	29	16	13	15	18	12	17	39	60	36	49	47	55	54	48	57	60	73	77	80	84	91	91	91	91	91	62	5	1	1	5	8	11	16	21	39	40	35	17	9	1	2	1	1	1	1	1	1	1	1	1	3	4	6	8	13	14	14	15	9	1	1	2	18	30	30	30	38	46	52	58	71	91	96	102	115	123	130	152	156	174	192	207	244	304	304	227	126	67	54	48	45	117	330	455	456	330	243	282	304	303	384	456	245	61	54	77	104	135	192	487	762	762	914	744	580	329	175	402	702	1075	1026	897	732	575	691	460	616	432	297	185	99	103	118	136	335	335	113	107	8	8	8	8	8	8	7	7	9	9	11	10	10	10	10	10	11	10	10	10	10	12	15	15	15	15	15	15	15	15	15	23	67	283	763
	0	0	0	0	0	0	0	0	0	0	0	0	0	0	0	1	4	4	4	4	4	1	1	6	6	1	1	1	1	1	1	1	1	1	1	1	3	9	14	16	23	27	25	24	28	50	41	26	32	46	40	5	1	4	12	19	28	40	66	82	88	78	68	61	53	56	60	59	37	19	12	7	1	1	1	1	1	1	2	3	8	9	1	1	1	1	2	1	1	1	16	24	27	29	30	57	95	142	149	145	133	131	150	152	152	163	172	170	186	194	203	142	55	45	45	56	102	217	370	457	372	264	284	391	373	271	171	152	126	34	50	83	113	146	304	491	727	595	620	644	514	274	167	569	1066	1137	1161	1015	762	512	345	456	197	114	74	45	14	14	24	28	8	1	1	8	7	7	8	7	7	7	7	7	7	8	10	10	10	10	10	10	10	10	10	10	11	15	15	15	15	20	21	15	21	27	62	168	382	598	1046
	0	0	0	0	0	0	0	0	0	0	0	0	0	0	0	3	4	4	4	4	4	4	4	1	1	1	1	1	1	1	1	2	2	3	3	3	2	1	1	1	8	14	12	10	7	4	1	1	1	1	1	1	8	14	22	29	61	78	91	101	100	95	92	77	67	60	60	60	60	31	25	16	6	1	2	6	1	1	1	1	1	1	2	5	7	7	5	3	1	1	1	10	19	27	38	67	135	232	287	287	152	149	152	150	142	138	120	132	119	98	63	45	45	49	60	75	131	229	304	311	254	245	338	441	456	388	290	152	110	51	49	88	125	252	500	773	800	766	648	413	310	150	210	454	626	578	618	537	546	304	143	115	58	3	1	1	1	1	4	7	1	1	1	1	1	7	8	7	7	7	7	8	8	7	9	9	9	10	9	9	9	9	9	9	10	10	14	26	41	54	63	58	80	129	391	688	919	1029	1177
	0	0	0	0	0	0	0	0	0	0	0	0	0	0	0	0	1	2	3	4	4	2	1	1	1	2	3	3	3	3	3	4	4	4	4	4	4	4	3	2	1	1	1	1	1	1	1	1	1	1	1	11	21	28	39	66	91	91	91	96	102	103	95	89	75	64	58	44	49	30	30	30	28	2	1	1	1	1	1	1	3	6	9	12	14	11	8	6	3	1	1	1	10	23	47	76	122	134	167	197	152	152	152	145	109	79	64	69	66	39	1	1	28	51	60	85	128	204	240	234	195	236	317	366	407	295	269	160	152	81	30	15	106	243	609	810	822	622	409	416	251	1	250	373	307	193	113	120	123	120	62	18	1	1	1	1	1	1	1	1	1	7	7	7	7	7	7	7	7	8	7	8	8	8	8	8	9	9	9	9	9	9	9	12	15	15	30	33	59	83	108	132	204	526	980	1255	1490	1626	1775
	0	0	0	0	0	0	0	0	0	0	0	0	0	0	0	0	0	0	0	0	0	0	1	1	2	3	4	4	4	4	4	4	4	4	4	4	4	4	4	4	4	1	1	1	1	1	1	1	1	1	13	37	55	73	79	83	89	84	74	81	88	97	94	91	84	71	57	34	27	30	30	30	30	30	30	19	9	8	7	9	10	14	16	20	20	16	12	8	4	1	1	1	1	1	2	40	66	71	75	98	109	108	106	86	65	45	38	51	41	6	1	1	18	45	72	144	195	152	152	158	178	194	217	219	218	195	167	152	152	73	1	1	59	157	333	491	442	219	126	117	99	42	1	123	1	1	1	1	1	15	4	1	1	3	2	2	1	1	1	1	2	8	8	8	8	8	8	9	10	10	10	8	8	8	8	8	8	8	8	9	9	9	9	11	15	20	29	38	84	119	147	339	606	898	1066	1199	1625	1713	1735
	0	0	0	0	0	0	0	0	0	0	0	0	0	0	0	0	1	1	1	1	1	1	2	3	4	4	4	4	4	4	4	4	4	4	4	4	4	4	4	4	4	4	1	1	1	1	1	1	1	3	60	80	98	95	91	87	77	67	57	66	73	79	89	91	91	88	68	41	24	22	27	26	27	30	30	29	22	22	18	18	17	21	23	27	26	22	16	10	3	4	2	1	1	1	1	1	1	1	1	1	1	1	1	1	1	1	1	1	1	1	1	2	35	89	148	228	304	304	241	167	144	148	151	151	152	152	151	134	145	152	1	1	1	104	124	123	125	42	1	16	14	5	1	1	1	2	3	3	2	1	2	3	2	1	1	1	1	1	1	2	8	8	8	9	9	10	9	9	8	9	12	10	9	9	9	9	9	9	10	11	11	15	15	16	19	26	112	201	241	400	749	773	864	1119	1339	1464	1565	1381	1409
	0	0	0	0	0	0	0	0	0	0	0	0	0	0	0	0	0	2	4	4	4	4	4	4	4	4	4	4	4	4	4	4	4	4	4	4	3	3	2	1	1	1	1	1	1	1	1	1	22	60	79	96	105	94	91	80	62	55	39	46	58	61	70	83	91	91	66	47	30	21	15	17	18	21	21	20	22	24	24	26	28	34	40	44	50	48	39	28	10	6	8	10	11	14	20	28	4	2	3	5	6	4	4	5	5	6	6	6	3	1	1	6	56	140	180	263	235	217	193	162	132	139	146	150	152	152	145	114	78	60	1	1	1	64	59	38	14	1	2	1	1	1	1	1	3	5	5	8	8	7	4	2	1	1	1	1	30	80	98	49	8	8	8	8	8	8	8	8	8	9	11	11	10	10	11	11	11	12	13	14	15	15	20	24	29	140	240	293	401	618	886	1117	1194	1464	1384	1522	1413	1232	1176
	0	0	0	0	0	0	0	0	0	0	0	0	0	0	0	0	0	2	4	4	4	4	4	4	4	4	4	4	4	4	4	4	4	3	2	1	1	1	1	1	1	1	1	1	1	1	1	21	43	67	90	98	103	95	91	78	60	49	33	30	36	37	36	52	73	75	66	61	49	30	19	15	13	13	13	17	22	25	28	30	49	59	59	64	64	61	54	36	21	9	14	20	25	30	32	30	20	19	21	24	23	14	13	13	14	17	20	24	28	37	26	5	1	35	54	60	83	96	103	94	113	141	152	152	152	152	152	152	60	37	11	1	1	20	11	5	1	1	1	1	1	1	1	1	1	1	1	1	1	1	1	1	1	1	1	119	278	304	182	79	12	8	8	8	8	8	8	8	8	8	11	13	12	12	12	12	13	14	15	15	15	22	73	156	311	333	376	483	678	825	1089	1219	1258	1482	1525	1446	1310	1118	1128
	0	0	0	0	0	0	0	0	0	0	0	0	0	0	0	0	0	2	3	4	4	4	4	4	4	4	4	4	4	4	4	3	1	1	1	1	1	1	1	1	1	1	2	3	3	2	2	13	25	49	74	91	101	93	91	85	73	66	60	44	27	22	23	24	34	48	46	38	30	23	18	14	13	17	23	29	36	48	57	57	67	74	82	85	69	57	40	28	16	13	20	28	34	41	37	32	30	30	51	53	44	24	21	21	23	25	27	29	64	96	84	44	12	1	16	32	38	43	46	56	92	106	97	96	98	90	97	78	2	1	1	1	1	1	1	1	1	1	1	1	1	1	1	1	1	1	1	1	1	1	1	1	1	1	1	100	152	73	28	3	7	8	8	9	9	9	8	8	8	8	9	12	14	13	13	14	14	14	15	21	40	191	280	294	384	475	602	769	902	1083	1349	1371	1132	1058	1055	1050	1071	1068	1274
	0	0	0	0	0	0	0	0	0	0	0	0	0	0	0	0	0	2	3	4	4	4	4	4	4	4	4	4	4	3	2	1	1	1	1	1	1	1	1	2	3	3	4	4	4	4	4	10	18	29	57	68	85	83	85	86	84	79	71	67	62	60	38	21	20	24	23	21	18	14	10	13	19	26	35	53	61	65	69	70	79	90	91	81	46	30	25	19	13	17	23	30	40	53	55	46	30	60	60	60	61	52	30	29	29	29	29	58	94	96	85	60	32	9	1	3	9	10	16	30	43	47	45	43	39	33	1	1	2	3	1	1	1	1	1	1	1	1	1	32	75	152	245	266	319	241	172	128	23	1	1	1	1	1	2	3	3	3	4	6	9	10	10	12	12	11	10	12	14	10	8	10	12	14	15	15	15	15	21	28	137	310	378	436	581	771	1004	1173	1211	1442	1432	1175	1072	1294	1212	1028	932	982	1250
	0	0	0	0	0	0	0	0	0	0	0	0	0	0	0	0	0	1	1	2	2	3	4	4	4	4	4	3	2	1	1	1	1	1	1	2	3	4	4	4	4	4	4	4	4	4	4	4	11	22	30	61	80	69	60	65	78	71	62	55	53	53	43	29	17	11	11	10	9	10	13	18	23	30	57	63	67	73	77	68	60	60	63	35	26	25	22	15	14	20	25	30	39	50	60	60	60	60	60	60	63	63	61	30	40	86	91	94	101	96	81	53	30	38	22	1	1	1	1	1	2	12	10	5	1	1	2	3	4	4	4	4	3	1	1	2	13	39	95	189	286	447	556	609	609	592	464	180	1	2	2	3	3	3	4	5	6	6	7	8	12	13	14	15	15	16	15	15	15	13	12	12	13	14	29	155	229	174	137	233	286	410	572	660	849	1075	1331	1427	1513	1375	1195	1067	1291	1523	1322	1252	1238	1045	913
	0	0	0	0	0	0	0	0	0	0	0	0	0	0	0	0	0	0	0	0	1	1	2	2	3	3	1	1	0	0	0	1	1	1	2	4	4	4	4	4	4	4	4	4	4	4	4	4	10	21	32	60	70	67	60	60	62	66	60	30	30	30	30	28	17	7	7	8	9	12	16	21	25	30	61	65	67	63	48	31	27	28	31	24	19	22	22	20	19	23	25	30	30	36	51	60	62	63	77	92	93	82	73	62	30	53	92	99	107	100	88	66	72	73	66	36	15	1	1	1	1	1	1	1	2	4	5	5	4	4	5	5	9	21	58	195	295	152	197	364	544	640	712	761	761	592	216	1	1	3	3	3	5	5	6	6	7	8	10	12	15	16	16	20	18	20	17	16	16	15	15	15	22	153	241	328	456	379	315	411	522	693	921	1117	1090	1037	1083	1219	1377	1239	1170	1373	1412	1524	1329	1431	1352	1252	1090
	0	0	0	0	0	0	0	0	0	0	0	0	0	0	0	0	0	0	0	0	0	0	0	0	1	0	0	1	1	0	1	1	1	2	3	4	4	4	4	4	4	4	4	4	4	4	4	4	4	9	21	35	56	62	61	60	60	60	61	55	30	30	30	30	23	14	7	7	10	13	17	22	26	30	60	61	61	40	27	24	22	21	20	17	14	20	23	24	26	28	29	32	48	60	60	66	69	74	83	91	91	97	94	94	93	82	95	101	107	111	102	102	101	96	92	76	47	20	1	1	1	1	1	3	6	5	3	3	3	3	6	11	24	206	392	304	304	283	313	389	483	597	747	739	517	279	22	1	3	3	3	4	5	5	7	9	8	11	12	14	17	19	22	25	25	23	21	19	15	16	126	208	270	304	266	266	429	587	586	644	823	905	1114	1371	1355	1277	1327	1345	1342	1278	1350	1524	1435	1527	1524	1525	1406	1364	1223
	0	0	0	0	0	0	0	0	0	0	0	0	0	0	0	0	0	0	1	1	1	0	1	1	1	1	1	1	1	1	1	3	3	4	4	4	4	4	4	4	4	4	4	4	4	4	4	4	4	4	10	21	29	41	55	60	50	43	37	33	30	30	30	27	18	12	7	6	11	17	21	23	21	26	35	49	37	22	19	18	17	16	14	14	19	22	25	28	35	31	30	41	60	60	60	72	76	81	86	91	91	91	103	104	105	103	104	107	111	114	114	118	116	106	95	72	39	28	8	3	3	2	4	5	3	3	3	3	3	5	11	26	304	244	302	304	345	434	449	453	509	602	695	619	264	43	1	2	2	3	2	4	6	6	9	9	10	11	15	14	19	24	29	30	33	41	63	58	126	228	457	352	250	231	206	259	384	500	519	532	567	608	745	856	986	1297	1524	1501	1497	1524	1522	1350	1213	1099	1234	1185	1038	785	657
	0	0	0	0	0	0	0	0	0	0	0	0	0	0	0	0	0	0	0	1	1	1	1	1	1	1	1	1	0	1	3	4	4	4	4	4	4	4	4	4	4	4	4	4	4	4	4	4	4	4	4	9	12	15	17	20	20	19	17	16	16	18	14	9	5	6	6	8	16	21	17	16	15	17	19	20	18	12	12	11	12	12	17	21	24	27	29	42	51	47	49	61	64	62	60	78	80	84	87	90	91	93	99	104	104	109	110	112	114	117	119	121	119	110	95	69	35	17	6	5	4	4	4	4	5	4	4	3	5	8	21	67	167	240	270	304	304	304	316	423	456	453	318	89	15	1	2	2	3	3	2	3	5	5	7	8	9	11	15	19	25	29	30	30	40	87	138	182	281	349	406	375	306	214	152	208	273	333	373	417	429	441	538	641	675	774	1053	1081	961	986	1085	1078	1087	913	761	758	666	462	316
	0	0	0	0	0	0	0	0	0	0	0	0	0	0	0	0	0	0	0	1	1	1	1	1	1	1	1	1	1	2	3	4	4	4	4	4	4	4	4	4	4	4	4	4	4	4	4	4	3	2	1	0	0	0	0	0	0	3	3	2	1	2	3	5	9	9	13	15	9	7	8	8	8	9	9	9	15	19	27	30	30	28	30	29	29	30	52	60	60	60	60	66	70	70	72	83	85	87	89	90	91	99	99	103	104	106	109	112	116	118	120	121	112	101	80	43	30	27	23	12	6	6	15	21	20	18	8	5	6	18	30	148	152	152	197	304	304	304	304	331	388	152	1	1	1	2	2	3	3	2	3	3	4	6	7	9	27	71	141	211	272	304	237	84	42	40	47	57	142	279	305	248	257	205	159	177	233	295	303	339	344	340	336	332	394	479	550	590	582	540	485	483	576	565	441	401	309	305	344
	0	0	0	0	0	0	0	0	0	0	0	0	0	0	0	0	0	0	0	0	0	1	1	1	1	1	2	3	4	4	4	4	4	4	4	4	4	4	4	4	4	4	4	4	3	3	2	1	0	0	0	0	0	0	0	0	0	1	1	2	2	5	5	5	6	5	5	7	11	14	13	12	13	15	15	19	25	30	30	30	30	34	33	31	30	30	47	56	60	60	64	72	77	83	87	92	93	95	93	94	100	106	106	108	108	109	111	117	118	117	121	121	113	93	82	70	59	69	65	36	24	25	34	33	31	28	12	10	15	23	30	117	140	150	152	304	302	297	295	304	92	1	1	1	2	2	2	3	2	2	3	2	4	25	41	108	204	318	445	375	301	168	62	43	49	54	56	56	55	56	57	60	92	95	99	119	145	230	304	273	243	158	165	179	183	244	284	283	273	291	267	273	289	286	285	296	310	379	452
	0	0	0	0	0	0	0	0	0	0	0	0	0	0	0	0	0	0	0	0	0	0	1	1	1	2	4	4	4	4	4	4	4	4	4	4	4	3	2	1	2	1	0	0	0	0	0	0	0	0	0	0	0	0	0	0	0	1	1	1	7	3	3	3	10	21	13	16	18	21	21	20	20	23	25	27	30	32	33	34	32	39	38	36	32	30	34	47	60	61	69	78	85	91	93	101	107	111	106	105	109	112	114	115	115	115	116	120	121	121	121	121	121	91	91	91	91	110	107	77	46	50	47	35	28	10	14	31	33	47	81	131	200	249	304	294	192	159	155	30	2	3	2	2	3	2	3	2	2	3	3	5	27	87	146	260	492	727	684	494	315	62	45	51	65	151	152	187	304	270	288	231	234	297	300	236	190	155	149	152	160	229	260	282	304	287	287	296	283	295	324	318	304	335	447	320	304	368	667
	0	0	0	0	0	0	0	0	0	0	0	0	0	0	0	0	0	0	0	0	0	0	0	1	1	3	4	4	4	4	4	4	4	4	4	3	1	1	0	0	0	0	0	0	0	0	0	0	0	0	0	0	0	0	1	0	1	1	4	36	30	31	30	39	38	31	24	25	26	27	28	27	27	28	29	30	31	34	37	38	39	42	58	60	46	38	51	64	67	70	76	81	86	90	99	114	121	121	118	116	117	118	120	121	120	119	120	121	121	121	121	121	117	94	91	91	91	102	61	60	60	60	35	30	21	19	30	44	65	92	123	149	291	304	304	204	28	23	14	7	3	3	3	3	3	3	2	3	3	2	38	39	102	188	406	601	780	752	610	419	198	45	45	45	152	152	208	350	440	305	437	739	924	930	788	657	568	405	374	355	453	465	494	448	446	451	600	727	906	938	916	779	702	617	595	596	486	305	490
	0	0	0	0	0	0	0	0	0	0	0	0	0	0	0	0	0	0	0	0	0	0	0	0	0	1	1	2	3	4	4	4	4	4	2	1	0	0	0	0	0	0	0	0	0	0	0	0	0	0	0	0	0	0	23	31	37	47	55	56	57	56	58	59	56	54	41	39	39	59	65	53	40	30	30	30	32	37	40	42	44	46	48	59	60	60	70	79	86	88	89	90	91	103	121	121	121	120	121	121	118	114	109	109	107	112	118	121	120	121	121	115	91	91	88	76	63	60	61	63	61	60	59	37	32	30	30	56	94	128	152	152	152	93	32	20	13	6	5	3	3	3	3	3	3	3	2	3	3	27	104	166	296	457	746	792	692	560	488	316	98	45	45	57	125	209	390	736	688	355	413	839	1217	1370	1113	963	1044	611	758	491	305	580	761	795	747	818	1110	1273	1361	1358	1298	1008	965	1027	984	919	757	468	305
	0	0	0	0	0	0	0	0	0	0	0	0	0	0	0	0	0	0	0	0	0	0	0	0	0	0	0	0	1	3	4	4	4	3	1	0	0	0	0	0	0	0	0	0	0	0	0	0	0	0	0	0	0	0	25	57	72	88	85	88	91	90	108	105	93	74	69	91	91	91	91	91	64	61	36	30	32	39	44	47	49	52	53	54	60	69	85	91	91	91	91	91	103	121	121	121	109	100	95	95	92	91	94	94	92	105	110	111	108	114	121	107	91	87	67	60	60	60	63	66	64	62	60	49	38	30	30	48	82	110	152	101	25	17	11	6	6	6	4	3	3	3	3	3	3	3	3	2	40	147	304	461	576	757	609	513	464	395	228	69	45	45	55	176	258	354	674	1060	825	706	457	616	1002	1508	1323	1210	1292	982	1066	846	495	412	742	1101	1284	1299	1501	1523	1675	1407	1201	1067	1142	1368	1180	1175	1134	781	472
	0	0	0	0	0	0	0	0	0	0	0	0	0	0	0	0	0	0	0	0	0	0	0	0	0	0	0	0	1	5	5	4	4	1	0	0	0	0	0	0	0	0	0	0	0	0	0	0	0	0	0	0	0	0	0	50	78	91	91	91	91	91	105	110	103	87	70	59	74	91	91	74	67	62	39	30	33	40	45	54	60	60	63	64	66	79	91	91	91	91	91	90	92	94	92	90	89	85	81	85	86	89	91	91	91	97	99	98	96	94	92	81	63	58	56	57	59	60	63	65	72	67	62	55	47	38	30	24	30	33	35	27	9	7	6	6	6	6	4	3	3	3	3	3	3	3	3	28	170	322	480	609	609	478	315	276	281	152	116	45	45	122	195	346	513	699	996	1240	1218	1072	749	515	745	1073	1480	1545	1308	1293	1237	1071	773	393	564	920	1194	1486	1659	1668	1484	1370	1322	1181	1067	1455	1432	1311	1165	895	586
	0	0	0	0	0	0	0	0	0	0	0	0	0	0	0	0	0	0	0	0	0	0	0	0	0	0	0	0	23	23	12	4	4	1	0	0	0	0	0	0	0	0	0	0	0	0	0	0	0	0	0	0	0	0	0	23	39	55	60	64	63	51	43	50	83	88	68	49	45	35	30	28	30	30	27	26	28	29	37	66	63	60	91	91	91	91	91	91	91	91	91	86	87	86	84	81	78	73	70	77	81	85	90	91	91	91	91	91	91	60	77	66	57	53	52	53	55	57	59	61	67	70	62	56	48	42	34	23	14	13	12	9	9	8	7	6	6	6	4	4	3	3	3	3	3	33	103	226	493	606	538	442	349	301	239	159	152	158	152	149	212	288	442	602	952	1209	1219	1098	913	763	621	609	876	1085	1323	1545	1539	1643	1425	1117	890	551	457	658	846	1227	1662	1619	1541	1494	1380	1220	1151	1299	1524	1370	1173	820	859
	0	0	0	0	0	0	0	0	0	0	0	0	0	0	0	0	0	0	0	0	0	1	0	0	0	0	0	0	8	30	27	14	12	5	2	0	0	0	0	0	0	0	0	0	0	0	0	0	0	0	0	0	0	0	0	0	0	0	0	0	0	0	0	0	17	35	39	35	32	21	21	21	21	21	24	25	26	28	60	81	71	61	69	81	80	83	86	91	91	91	91	82	81	79	76	72	68	64	60	69	73	77	78	83	91	91	88	67	60	64	64	62	50	48	48	49	52	54	56	59	61	66	62	56	48	41	34	24	13	12	10	9	9	9	8	7	6	6	6	5	6	5	4	4	50	124	325	462	454	388	303	287	289	293	221	170	221	252	274	296	366	644	867	1041	1240	1371	1311	1083	905	1095	1074	762	1015	1481	1372	1466	1526	1316	1104	1002	1028	968	805	553	494	817	933	1376	1524	1491	1428	1451	1372	1257	1487	1379	1069	914	1241
	0	0	0	0	0	0	0	0	0	0	0	0	0	0	0	0	0	0	0	0	0	0	0	0	0	0	0	0	0	31	41	30	19	13	7	1	0	0	0	0	0	0	0	0	0	0	0	0	0	0	0	0	0	0	0	0	0	0	0	0	0	0	0	0	0	0	0	6	5	9	13	14	17	22	28	34	36	42	54	100	91	88	69	60	60	60	61	65	89	86	84	78	75	72	69	65	62	60	59	61	62	63	63	63	61	60	60	60	60	58	60	56	44	43	44	45	48	52	55	59	62	64	62	55	42	33	26	18	14	12	12	11	9	9	9	9	8	7	7	7	6	6	7	67	148	397	580	393	295	263	260	256	278	286	287	288	304	471	609	783	855	738	917	1335	1371	1314	1178	916	1078	1219	1034	764	1008	1263	1524	1624	1502	1283	1463	1450	1522	1359	1082	910	794	607	692	1013	1253	1356	1353	1380	1507	1578	1604	1582	1414	1292	1569
	0	0	0	0	0	0	0	0	0	0	0	0	0	0	0	0	0	0	0	0	0	0	0	0	0	0	0	0	0	15	56	46	28	22	16	5	0	0	0	0	0	0	0	0	0	0	0	0	0	0	0	0	0	0	0	0	0	0	0	0	0	0	0	0	0	0	0	0	0	5	20	30	30	40	54	64	74	84	91	124	127	122	111	97	85	79	71	68	69	73	77	75	73	71	66	62	59	57	57	57	60	60	58	58	59	59	59	58	55	51	48	44	39	39	40	41	45	49	53	58	60	60	56	40	29	22	17	16	13	12	12	12	11	9	9	9	9	8	8	8	9	15	96	196	419	466	338	271	229	207	229	254	292	305	304	488	666	771	715	621	941	1188	1160	1350	1236	1085	989	1119	1223	1175	1016	891	970	1059	1240	1406	1536	1560	1535	1478	1309	1176	1124	1279	1178	949	778	663	815	912	959	965	975	1081	1241	1345	1536	1758	1927
	0	0	0	0	0	0	0	0	0	0	0	0	0	0	0	0	0	0	0	0	0	0	0	0	0	0	0	0	0	0	43	47	48	58	54	27	1	0	0	0	0	0	0	0	0	0	0	0	0	0	0	0	0	0	0	0	0	0	0	0	0	0	0	0	0	0	0	0	0	1	15	24	35	63	69	78	94	117	127	128	128	128	126	121	101	85	68	59	61	71	76	76	76	76	75	61	61	52	46	46	48	47	46	46	50	48	46	46	46	46	46	46	46	46	46	46	46	46	49	52	56	49	44	30	22	17	15	15	15	12	12	12	12	12	10	9	9	9	9	23	104	264	244	234	267	227	183	200	187	188	305	246	304	420	497	870	1117	1157	950	913	917	959	1259	1331	1337	1175	1029	1210	1197	1017	913	1249	1349	1092	1211	1277	1467	1706	1456	1239	1131	1306	1400	1282	1044	1239	1093	860	874	756	876	1031	920	838	853	939	1135	1366	1545
	0	0	0	0	0	0	0	0	0	0	0	0	0	0	0	0	0	0	0	0	0	0	0	0	0	0	0	0	0	0	21	22	29	46	62	55	20	0	0	0	0	0	0	0	0	0	0	0	0	0	0	0	0	0	0	0	0	0	0	0	0	0	0	0	0	0	5	0	0	0	6	14	21	26	30	33	52	79	119	119	122	121	116	120	98	67	55	53	57	60	62	76	76	76	76	67	61	55	46	46	46	46	46	46	46	46	46	46	46	46	46	46	46	46	45	46	45	45	45	46	37	31	29	21	18	16	15	15	15	15	13	12	12	12	12	12	17	59	222	386	377	244	197	180	178	177	177	178	237	245	291	244	497	790	1020	934	1092	1403	1342	1140	996	914	1041	1142	1181	1164	1151	1333	1347	1291	1139	1195	1390	1292	1403	1584	1507	1354	1351	1330	1401	1471	1290	1159	1306	1157	1026	1209	1161	866	859	1287	1450	1277	1185	1330	1033	1211	1422
	0	0	0	0	0	0	0	0	0	0	0	0	0	0	0	0	0	0	0	0	0	0	0	0	0	0	0	0	0	0	7	8	13	17	33	32	11	0	0	0	0	0	0	0	0	0	0	0	0	0	0	0	0	0	0	0	0	0	0	0	0	0	0	0	0	5	0	0	0	0	0	3	7	10	11	18	20	26	45	66	76	80	96	101	71	45	36	45	55	61	68	73	70	66	62	58	54	51	46	46	46	46	46	46	46	46	46	46	45	46	46	45	46	45	45	45	41	41	39	35	29	20	18	16	15	15	15	15	15	15	15	15	15	15	26	118	251	304	212	184	183	183	176	173	171	169	181	360	444	295	246	229	391	660	910	1013	1269	1348	1220	1218	1148	1153	1028	1078	1216	1295	1268	1362	1441	1534	1532	1411	1337	1346	1375	1337	1358	1406	1484	1509	1526	1434	1356	1219	1185	1348	1410	1182	1066	900	792	1053	1423	1812	1903	1938	1799	1158	1181
	0	0	0	0	0	0	0	0	0	0	0	0	0	0	0	0	0	0	0	0	0	0	0	0	0	0	0	0	0	0	0	0	0	0	0	0	0	0	0	0	0	0	0	0	0	0	0	0	0	0	0	0	0	0	0	0	0	0	0	0	0	0	0	0	33	18	1	0	0	0	0	0	1	5	6	6	6	12	13	23	31	38	42	46	30	28	28	32	42	52	55	58	60	52	48	47	47	46	41	41	45	46	46	46	46	46	46	45	44	46	45	45	43	33	36	32	29	29	30	21	18	18	17	15	15	15	15	15	15	25	34	20	38	139	171	181	182	182	182	180	181	175	167	161	171	182	410	548	528	373	271	233	337	617	750	951	1371	1235	1179	1160	1096	1186	1280	1218	1465	1341	1199	1250	1244	1162	1015	1076	1063	982	1036	1007	992	996	1066	1142	1235	1426	1523	1500	1530	1423	1222	1289	1091	964	1204	953	958	1257	1725	2072	1896	1524	1158
	0	0	0	0	0	0	0	0	0	0	0	0	0	0	0	0	0	0	0	0	0	0	0	0	0	0	0	0	0	0	0	0	0	0	0	0	0	0	0	0	0	0	0	0	0	0	0	0	0	0	0	0	0	0	0	0	0	0	0	0	0	0	1	22	62	64	29	6	1	1	0	1	3	6	6	6	6	7	12	12	12	17	18	18	20	23	24	26	28	29	33	34	32	32	30	30	38	39	30	35	36	38	38	40	42	40	39	37	40	44	41	36	29	27	27	26	24	24	24	24	21	18	18	18	18	15	15	16	25	40	55	90	107	122	146	196	192	180	183	183	178	168	157	167	184	448	511	549	568	427	243	228	297	590	933	1211	1254	1080	1022	986	986	1014	1080	1277	1534	1284	1173	1002	973	782	791	855	835	907	853	906	1090	1216	1104	1040	975	1063	1233	1458	1474	1279	1399	1202	1036	1330	1627	1426	1187	975	1322	1810	1863	1444	1449
